ply
format ascii 1.0
element vertex 707
property float x
property float y
property float z
property uchar red
property uchar green
property uchar blue
end_header
37.24151611328125 8.096543312072754 -55.35289001464844 128 128 128
1.1441131830215454 16.784448623657227 -67.24202728271484 128 128 128
-3.9322433471679688 17.272735595703125 -67.1961669921875 128 128 128
-1.8288753032684326 17.131126403808594 -67.24636840820312 128 128 128
37.22993087768555 8.095766067504883 -55.36086654663086 128 128 128
37.20748519897461 8.09179401397705 -55.367210388183594 128 128 128
25.7793025970459 -8.536796569824219 -59.00857162475586 128 128 128
-2.6175661087036133 17.19488525390625 -67.23694610595703 128 128 128
37.199134826660156 8.09086799621582 -55.36949157714844 128 128 128
37.01546859741211 8.079137802124023 -55.413143157958984 128 128 128
37.20628356933594 8.091653823852539 -55.367767333984375 128 128 128
13.369645118713379 13.21903133392334 -64.55907440185547 128 128 128
37.20065689086914 8.090991020202637 -55.36972427368164 128 128 128
1.1450649499893188 16.78511619567871 -67.24381256103516 128 128 128
1.0648002624511719 16.794286727905273 -67.2369384765625 128 128 128
-3.579348087310791 17.248327255249023 -67.20101165771484 128 128 128
57.65248107910156 -34.550071716308594 -6.5976691246032715 128 128 128
57.561180114746094 -34.977752685546875 -6.487613677978516 128 128 128
57.978851318359375 -32.801231384277344 -7.845076560974121 128 128 128
56.84541320800781 -37.92433166503906 -7.641127109527588 128 128 128
54.03452682495117 -37.80265808105469 20.9677677154541 128 128 128
56.17378234863281 -30.20096206665039 18.503568649291992 128 128 128
57.981178283691406 -32.801231384277344 -7.846126079559326 128 128 128
51.936283111572266 -35.963172912597656 29.160640716552734 128 128 128
58.09490966796875 -32.51522445678711 -8.279984474182129 128 128 128
57.6123161315918 -34.73900604248047 -6.511114120483398 128 128 128
51.93058776855469 -35.96380615234375 29.148645401000977 128 128 128
58.20820999145508 -32.26460266113281 -8.697733879089355 128 128 128
57.59050750732422 -34.88010787963867 -6.490901947021484 128 128 128
57.61482238769531 -34.73313903808594 -6.509429931640625 128 128 128
55.89741134643555 -38.32908248901367 9.15540885925293 128 128 128
51.93634796142578 -35.963104248046875 29.160961151123047 128 128 128
58.76163101196289 -32.11783218383789 -9.466888427734375 128 128 128
46.31515121459961 -34.12791442871094 33.78255844116211 128 128 128
56.842227935791016 -37.90922164916992 -7.564836025238037 128 128 128
57.910926818847656 -33.02677917480469 -7.633291244506836 128 128 128
50.20286178588867 10.970831871032715 36.87230682373047 128 128 128
50.20277786254883 10.97082805633545 36.872314453125 128 128 128
55.24201583862305 10.928133964538574 40.78193664550781 128 128 128
50.20349884033203 10.970614433288574 36.871891021728516 128 128 128
50.87723922729492 12.988579750061035 43.07667541503906 128 128 128
50.20338439941406 10.973450660705566 36.87260437011719 128 128 128
50.20283126831055 10.970821380615234 36.87229537963867 128 128 128
53.81721878051758 11.807806015014648 42.01738357543945 128 128 128
50.87593460083008 12.988903045654297 43.07686996459961 128 128 128
55.24167251586914 10.928038597106934 40.782283782958984 128 128 128
55.24195098876953 10.928174018859863 40.781978607177734 128 128 128
55.240169525146484 10.929227828979492 40.78543472290039 128 128 128
50.20368194580078 10.973389625549316 36.87245559692383 128 128 128
55.242122650146484 10.928082466125488 40.781898498535156 128 128 128
54.426273345947266 9.33629322052002 34.598899841308594 128 128 128
50.76676940917969 10.735042572021484 36.43339920043945 128 128 128
50.89558410644531 12.982333183288574 43.06343460083008 128 128 128
50.20330047607422 10.970685958862305 36.87204360961914 128 128 128
51.73073959350586 12.713079452514648 42.727909088134766 128 128 128
55.76835250854492 8.560643196105957 33.48660659790039 128 128 128
52.75215148925781 -37.78691101074219 -13.766301155090332 128 128 128
56.82662582397461 -37.996402740478516 -7.721867084503174 128 128 128
52.752262115478516 -37.78683853149414 -13.766073226928711 128 128 128
59.059146881103516 -32.121315002441406 -9.879154205322266 128 128 128
58.96272277832031 -38.518070220947266 -14.80506420135498 128 128 128
40.01690673828125 -4.003657341003418 47.74750518798828 128 128 128
58.61749267578125 -38.783477783203125 -15.589983940124512 128 128 128
52.750545501708984 -37.784488677978516 -13.764873504638672 128 128 128
59.292179107666016 -38.161556243896484 -13.965460777282715 128 128 128
59.7204704284668 -37.34939956665039 -12.549446105957031 128 128 128
58.025753021240234 -32.653968811035156 -8.047051429748535 128 128 128
59.74224853515625 -37.27946472167969 -12.417220115661621 128 128 128
52.75242233276367 -37.811702728271484 -13.773920059204102 128 128 128
58.648902893066406 -38.75559997558594 -15.523248672485352 128 128 128
59.439048767089844 -37.9361686706543 -13.471831321716309 128 128 128
52.75202178955078 -37.78717041015625 -13.766952514648438 128 128 128
59.16142272949219 -38.34284210205078 -14.308844566345215 128 128 128
52.74983215332031 -37.845455169677734 -13.782937049865723 128 128 128
58.68869400024414 -38.729827880859375 -15.427532196044922 128 128 128
52.74935531616211 -37.843753814697266 -13.784265518188477 128 128 128
15.17283821105957 18.875131607055664 61.448299407958984 128 128 128
15.129169464111328 18.896129608154297 61.4603271484375 128 128 128
48.26155090332031 13.592815399169922 44.81064987182617 128 128 128
44.62799835205078 13.707716941833496 47.15181350708008 128 128 128
16.19807243347168 18.437620162963867 61.135009765625 128 128 128
47.82168197631836 13.6490478515625 45.16733169555664 128 128 128
19.27546501159668 17.27567481994629 60.37682342529297 128 128 128
50.4378776550293 13.121253967285156 43.28778839111328 128 128 128
15.17617416381836 18.873762130737305 61.44676971435547 128 128 128
15.08552360534668 18.916210174560547 61.4744873046875 128 128 128
36.17449188232422 16.22858238220215 52.89387893676758 128 128 128
49.32775115966797 13.380704879760742 43.95478057861328 128 128 128
22.307193756103516 16.3549747467041 59.272857666015625 128 128 128
15.104037284851074 18.908899307250977 61.469505310058594 128 128 128
28.905845642089844 16.56911277770996 56.43878936767578 128 128 128
49.9453239440918 13.23009204864502 43.5440673828125 128 128 128
50.10444641113281 13.200906753540039 43.439308166503906 128 128 128
49.07155990600586 13.443486213684082 44.163246154785156 128 128 128
50.5867805480957 13.072665214538574 43.20233154296875 128 128 128
15.113077163696289 18.90530776977539 61.46644973754883 128 128 128
45.423301696777344 -32.04682159423828 37.898963928222656 128 128 128
46.2530403137207 -34.06218719482422 33.88974380493164 128 128 128
45.423316955566406 -32.04689025878906 37.89882278442383 128 128 128
51.68730926513672 -34.16054916381836 34.86692810058594 128 128 128
51.68678665161133 -34.159881591796875 34.868167877197266 128 128 128
46.30529022216797 -34.12158966064453 33.79827117919922 128 128 128
46.31522750854492 -34.127960205078125 33.78276062011719 128 128 128
44.67137908935547 -24.5529727935791 42.753509521484375 128 128 128
51.689212799072266 -34.16780090332031 34.85791778564453 128 128 128
45.42329025268555 -32.04682540893555 37.8989372253418 128 128 128
51.686790466308594 -34.15987777709961 34.868167877197266 128 128 128
-1.0955623388290405 -0.704888641834259 64.2852783203125 128 128 128
51.68821334838867 -34.16820526123047 34.859107971191406 128 128 128
51.760658264160156 -34.317569732666016 34.51060485839844 128 128 128
46.31184768676758 -34.126312255859375 33.78788757324219 128 128 128
51.885833740234375 -35.91977310180664 29.377460479736328 128 128 128
45.41905975341797 -32.02363586425781 37.91423034667969 128 128 128
51.760616302490234 -34.31755828857422 34.510623931884766 128 128 128
45.42328643798828 -32.046875 37.89888000488281 128 128 128
51.83060073852539 -34.625885009765625 33.86167907714844 128 128 128
67.79164123535156 6.374052047729492 -3.4731907844543457 128 128 128
67.78177642822266 6.381209850311279 -3.4249427318573 128 128 128
67.7835922241211 6.380122661590576 -3.4281888008117676 128 128 128
67.7818603515625 6.381143569946289 -3.425255298614502 128 128 128
69.19251251220703 4.575298309326172 -10.145753860473633 128 128 128
67.78907012939453 6.376036643981934 -3.460191249847412 128 128 128
67.7889404296875 6.376158714294434 -3.4593465328216553 128 128 128
67.7818374633789 6.381167411804199 -3.4253017902374268 128 128 128
67.78907012939453 6.376007080078125 -3.4603583812713623 128 128 128
67.78131866455078 6.381599426269531 -3.421675682067871 128 128 128
63.6505241394043 -4.4336090087890625 0.8344725966453552 128 128 128
69.19493103027344 4.57211971282959 -10.145206451416016 128 128 128
67.78364562988281 6.380116939544678 -3.4280307292938232 128 128 128
67.78182983398438 6.381251335144043 -3.4245641231536865 128 128 128
62.21965026855469 6.882419586181641 -9.560466766357422 128 128 128
69.1949691772461 4.572106838226318 -10.145198822021484 128 128 128
69.19496154785156 4.5721025466918945 -10.145195960998535 128 128 128
67.78179168701172 6.381253719329834 -3.424623727798462 128 128 128
67.78131103515625 6.381598472595215 -3.421666383743286 128 128 128
67.7831039428711 6.381861686706543 -3.4181067943573 128 128 128
-39.626441955566406 31.09620475769043 47.23943328857422 128 128 128
-39.592952728271484 31.086257934570312 47.26481246948242 128 128 128
-35.01038360595703 29.44062042236328 50.010555267333984 128 128 128
-39.60575485229492 31.089664459228516 47.255149841308594 128 128 128
-39.52482223510742 31.066545486450195 47.31966781616211 128 128 128
-32.83487319946289 28.453447341918945 51.077476501464844 128 128 128
-39.630306243896484 31.09728240966797 47.23661804199219 128 128 128
-39.524810791015625 31.066543579101562 47.319679260253906 128 128 128
-39.60575485229492 31.08965301513672 47.255191802978516 128 128 128
-37.44306564331055 30.378738403320312 48.70704650878906 128 128 128
-39.427467346191406 31.042098999023438 47.394371032714844 128 128 128
-39.32850646972656 31.017929077148438 47.4671630859375 128 128 128
-39.605743408203125 31.08965301513672 47.255252838134766 128 128 128
-31.216129302978516 10.434586524963379 56.6201286315918 128 128 128
-39.619049072265625 31.0943603515625 47.24481964111328 128 128 128
-37.44309997558594 30.37874412536621 48.70703125 128 128 128
-33.045013427734375 28.556617736816406 50.9640007019043 128 128 128
-32.44280242919922 28.243263244628906 51.296478271484375 128 128 128
-39.619361877441406 31.094423294067383 47.244606018066406 128 128 128
-32.458587646484375 28.251192092895508 51.28779220581055 128 128 128
40.7206916809082 -14.93090534210205 -44.874908447265625 128 128 128
23.12554931640625 -33.640846252441406 -56.31624221801758 128 128 128
25.219755172729492 -33.53533935546875 -55.44645690917969 128 128 128
25.67082405090332 -33.50468826293945 -55.23667907714844 128 128 128
-14.797676086425781 -23.078676223754883 -63.189292907714844 128 128 128
-11.197871208190918 -24.30478858947754 -63.32883071899414 128 128 128
28.00639533996582 -33.255672454833984 -54.0324821472168 128 128 128
27.749826431274414 -33.28774642944336 -54.18327713012695 128 128 128
27.432079315185547 -33.32895278930664 -54.34529495239258 128 128 128
25.409683227539062 -33.51851272583008 -55.361671447753906 128 128 128
24.89097785949707 -33.541290283203125 -55.59308624267578 128 128 128
17.13637351989746 -32.993831634521484 -58.354217529296875 128 128 128
26.089643478393555 -33.44792175292969 -55.04104232788086 128 128 128
24.064050674438477 -33.600341796875 -55.955955505371094 128 128 128
1.6786623001098633 -27.82492446899414 -61.95429229736328 128 128 128
28.00568389892578 -33.255714416503906 -54.03290939331055 128 128 128
15.821391105651855 -32.72914123535156 -58.71039962768555 128 128 128
-11.209311485290527 -24.301986694335938 -63.328643798828125 128 128 128
25.966073989868164 -33.477745056152344 -55.09842300415039 128 128 128
24.43768882751465 -33.58612823486328 -55.798152923583984 128 128 128
9.169928550720215 21.217069625854492 64.3234634399414 128 128 128
8.884023666381836 21.302631378173828 64.3405532836914 128 128 128
7.999393463134766 21.60552978515625 64.3910140991211 128 128 128
15.069539070129395 18.92258071899414 61.48059844970703 128 128 128
15.081648826599121 18.917755126953125 61.47603225708008 128 128 128
10.284554481506348 20.817930221557617 64.16578674316406 128 128 128
10.523492813110352 20.73955535888672 64.1307601928711 128 128 128
7.971092700958252 21.615022659301758 64.38729858398438 128 128 128
15.081512451171875 18.917816162109375 61.476043701171875 128 128 128
8.53935718536377 21.423782348632812 64.36687469482422 128 128 128
8.876684188842773 21.3051815032959 64.34548950195312 128 128 128
15.02086067199707 18.942638397216797 61.500091552734375 128 128 128
10.564437866210938 20.724336624145508 64.12104034423828 128 128 128
15.057072639465332 18.927566528320312 61.48505401611328 128 128 128
10.473179817199707 20.758419036865234 64.13605499267578 128 128 128
6.5143656730651855 22.074098587036133 64.37411499023438 128 128 128
10.36256217956543 20.78912925720215 64.16398620605469 128 128 128
15.046586990356445 18.93168830871582 61.487648010253906 128 128 128
8.138527870178223 21.559654235839844 64.37266540527344 128 128 128
15.021315574645996 18.942474365234375 61.49991989135742 128 128 128
36.757164001464844 8.072569847106934 -51.55171203613281 128 128 128
41.11872100830078 8.464462280273438 -54.203895568847656 128 128 128
39.34917449951172 8.355180740356445 -54.820037841796875 128 128 128
36.757137298583984 8.072555541992188 -51.55170440673828 128 128 128
44.652740478515625 8.635730743408203 -51.547950744628906 128 128 128
41.87066650390625 8.53042221069336 -53.7927131652832 128 128 128
45.308876037597656 8.624456405639648 -50.92912673950195 128 128 128
45.88808822631836 8.604312896728516 -50.35590744018555 128 128 128
37.42239761352539 8.134069442749023 -55.30262756347656 128 128 128
41.87069320678711 8.53042221069336 -53.792694091796875 128 128 128
37.27535629272461 8.10218620300293 -55.34113693237305 128 128 128
36.75714111328125 8.072566986083984 -51.55172348022461 128 128 128
41.936153411865234 8.541473388671875 -53.752532958984375 128 128 128
45.99824905395508 8.59936237335205 -50.23722839355469 128 128 128
45.898101806640625 8.603657722473145 -50.346824645996094 128 128 128
41.87544631958008 8.530594825744629 -53.78986740112305 128 128 128
41.10989761352539 8.464003562927246 -54.208805084228516 128 128 128
36.75712966918945 8.07255744934082 -51.55171203613281 128 128 128
41.87069320678711 8.53042221069336 -53.792694091796875 128 128 128
41.87113952636719 8.53043270111084 -53.79240798950195 128 128 128
54.58588790893555 -38.93793487548828 -20.321109771728516 128 128 128
57.893253326416016 -39.12229537963867 -16.84372901916504 128 128 128
58.4422607421875 -38.87068176269531 -15.957542419433594 128 128 128
54.590492248535156 -38.93956756591797 -20.315757751464844 128 128 128
54.590126037597656 -38.93853759765625 -20.317310333251953 128 128 128
54.590423583984375 -38.93949508666992 -20.316064834594727 128 128 128
52.7487678527832 -37.83760070800781 -13.78312873840332 128 128 128
55.92875671386719 -29.966657638549805 -23.26556396484375 128 128 128
58.60358810424805 -38.793399810791016 -15.62824535369873 128 128 128
54.58607864379883 -38.939815521240234 -20.31899642944336 128 128 128
54.5860595703125 -38.93753433227539 -20.32274627685547 128 128 128
54.59037399291992 -38.939517974853516 -20.316097259521484 128 128 128
54.590110778808594 -38.93851089477539 -20.3173770904541 128 128 128
58.58199691772461 -38.814544677734375 -15.66512680053711 128 128 128
52.7487678527832 -37.83759689331055 -13.783119201660156 128 128 128
52.73653030395508 -38.2499885559082 -14.138096809387207 128 128 128
54.590576171875 -38.93965148925781 -20.31561851501465 128 128 128
58.64560317993164 -38.76011657714844 -15.535996437072754 128 128 128
54.5865364074707 -38.93851852416992 -20.31998634338379 128 128 128
58.463623046875 -38.86267852783203 -15.91646957397461 128 128 128
46.12062072753906 8.59182357788086 -50.12321472167969 128 128 128
54.763710021972656 6.699547290802002 -39.951210021972656 128 128 128
46.20268249511719 8.586440086364746 -50.05141067504883 128 128 128
61.631309509277344 0.3677574396133423 -16.47197723388672 128 128 128
46.202178955078125 8.586483001708984 -50.052005767822266 128 128 128
63.852561950683594 4.420707702636719 -15.617451667785645 128 128 128
46.10596466064453 8.592887878417969 -50.13664627075195 128 128 128
47.47015380859375 8.489079475402832 -48.832916259765625 128 128 128
46.47372055053711 8.57756233215332 -49.798465728759766 128 128 128
46.17591094970703 8.584992408752441 -50.075103759765625 128 128 128
59.29424285888672 5.98665189743042 -30.20646095275879 128 128 128
46.668540954589844 8.567155838012695 -49.601810455322266 128 128 128
46.838809967041016 8.553256034851074 -49.44472122192383 128 128 128
46.602012634277344 8.568867683410645 -49.665897369384766 128 128 128
47.69013595581055 8.467090606689453 -48.627689361572266 128 128 128
63.55280685424805 4.086413383483887 -15.87403678894043 128 128 128
63.86545944213867 4.436643123626709 -15.609641075134277 128 128 128
46.364925384521484 8.583589553833008 -49.89772033691406 128 128 128
46.99296951293945 8.530288696289062 -49.289405822753906 128 128 128
46.3278923034668 8.58663272857666 -49.93547439575195 128 128 128
-69.48657989501953 -11.76419448852539 7.962291240692139 128 128 128
-68.94524383544922 -12.032159805297852 9.924969673156738 128 128 128
-71.86087799072266 -7.427858352661133 12.94698715209961 128 128 128
-71.84120178222656 -8.332728385925293 15.612445831298828 128 128 128
-68.6419677734375 -5.905339241027832 -0.449865460395813 128 128 128
-70.83313751220703 -6.7022528648376465 9.500290870666504 128 128 128
-66.7135238647461 -5.3404998779296875 9.917577743530273 128 128 128
-70.42241668701172 -6.632302761077881 8.933626174926758 128 128 128
-67.81571960449219 -11.243805885314941 -8.968941688537598 128 128 128
-71.3712158203125 -6.939491271972656 10.848132133483887 128 128 128
-69.82367706298828 -6.488002300262451 8.288589477539062 128 128 128
-69.80875396728516 -6.4790425300598145 8.264415740966797 128 128 128
-66.96407318115234 -11.779451370239258 14.74496078491211 128 128 128
-69.59923553466797 -6.349878311157227 8.088788986206055 128 128 128
-64.3845443725586 -13.733996391296387 -26.86905288696289 128 128 128
-64.41281127929688 -6.155036449432373 -15.9790678024292 128 128 128
-69.44642639160156 -11.829137802124023 8.21080207824707 128 128 128
-66.96417236328125 -11.779500961303711 14.7446870803833 128 128 128
-66.96379852294922 -11.779119491577148 14.75467586517334 128 128 128
-71.84342193603516 -8.328792572021484 15.606060028076172 128 128 128
-6.055577278137207 -4.317540645599365 -65.4190902709961 128 128 128
-27.427865982055664 -21.872228622436523 -60.68873596191406 128 128 128
-29.406986236572266 -21.071561813354492 -59.778743743896484 128 128 128
-22.39674186706543 -22.237091064453125 -62.28841018676758 128 128 128
-57.59044647216797 -13.628044128417969 -34.07870101928711 128 128 128
-49.572906494140625 -6.9741926193237305 -40.909141540527344 128 128 128
-17.92984390258789 -22.255916595458984 -62.96723556518555 128 128 128
-57.59044647216797 -13.628042221069336 -34.07870101928711 128 128 128
-28.97479248046875 -21.306793212890625 -59.9961051940918 128 128 128
-27.427892684936523 -21.87222671508789 -60.6887321472168 128 128 128
-20.671485900878906 -22.270334243774414 -62.619686126708984 128 128 128
-22.497312545776367 0.7413574457168579 -60.8652229309082 128 128 128
-25.419639587402344 -22.18519401550293 -61.448158264160156 128 128 128
-20.40484619140625 -22.29509735107422 -62.660030364990234 128 128 128
-26.12360954284668 -22.111696243286133 -61.195648193359375 128 128 128
-50.12605285644531 -15.107250213623047 -41.76498794555664 128 128 128
-27.597299575805664 -21.805572509765625 -60.62079620361328 128 128 128
-57.5904655456543 -13.628040313720703 -34.078704833984375 128 128 128
-18.52224349975586 -22.159950256347656 -62.910579681396484 128 128 128
-40.92045593261719 -17.105079650878906 -51.2099609375 128 128 128
-32.2725944519043 28.16741180419922 51.39693832397461 128 128 128
4.0748186111450195 22.697786331176758 64.23068237304688 128 128 128
5.665964126586914 22.312326431274414 64.33778381347656 128 128 128
-32.38375473022461 28.209653854370117 51.33397674560547 128 128 128
-15.56434154510498 25.029600143432617 58.867393493652344 128 128 128
-32.31306838989258 28.18778419494629 51.37348937988281 128 128 128
4.3895368576049805 22.62946891784668 64.2540283203125 128 128 128
-32.04064178466797 28.044692993164062 51.52922439575195 128 128 128
-32.161842346191406 28.113765716552734 51.457828521728516 128 128 128
-32.37803268432617 28.20636558532715 51.33732223510742 128 128 128
-32.377994537353516 28.20635223388672 51.337318420410156 128 128 128
-0.5518558621406555 23.370746612548828 63.519432067871094 128 128 128
-32.37811279296875 28.206430435180664 51.33724594116211 128 128 128
-32.351139068603516 28.20343780517578 51.35233688354492 128 128 128
-32.37811279296875 28.20642852783203 51.337249755859375 128 128 128
-32.16193389892578 28.11379623413086 51.45780563354492 128 128 128
5.905179977416992 22.24679183959961 64.35614013671875 128 128 128
-27.665746688842773 25.407644271850586 54.29655456542969 128 128 128
5.70482063293457 22.30179214477539 64.33983612060547 128 128 128
-32.19225311279297 28.130054473876953 51.43574142456055 128 128 128
-66.9736557006836 -11.799154281616211 14.749736785888672 128 128 128
-67.9699935913086 -11.123191833496094 22.162538528442383 128 128 128
-66.97198486328125 -11.796639442443848 14.761805534362793 128 128 128
-71.80883026123047 -8.428021430969238 15.777101516723633 128 128 128
-66.71407318115234 -5.340635776519775 9.916769981384277 128 128 128
-66.71405029296875 -5.340620517730713 9.916690826416016 128 128 128
-65.88428497314453 -8.654251098632812 11.863604545593262 128 128 128
-66.97367095947266 -11.799156188964844 14.749606132507324 128 128 128
-66.9722671508789 -11.796767234802246 14.759329795837402 128 128 128
-71.80888366699219 -8.427982330322266 15.776941299438477 128 128 128
-67.97105407714844 -11.123453140258789 22.159610748291016 128 128 128
-66.96379089355469 -11.779165267944336 14.755111694335938 128 128 128
-66.97367858886719 -11.802029609680176 14.760113716125488 128 128 128
-71.80902862548828 -8.424955368041992 15.775535583496094 128 128 128
-71.80883026123047 -8.428013801574707 15.777073860168457 128 128 128
-65.87542724609375 -8.72692584991455 11.923565864562988 128 128 128
-66.71407318115234 -5.340641975402832 9.916789054870605 128 128 128
-67.97102355957031 -11.123470306396484 22.159656524658203 128 128 128
-71.81132507324219 -8.421298027038574 15.765617370605469 128 128 128
-66.26029968261719 -10.629528045654297 13.125999450683594 128 128 128
62.21839904785156 6.881775379180908 -9.56087589263916 128 128 128
62.21916198730469 6.882095813751221 -9.561067581176758 128 128 128
69.19287109375 4.574862480163574 -10.145228385925293 128 128 128
62.219120025634766 6.882068157196045 -9.561064720153809 128 128 128
69.19495391845703 4.572109222412109 -10.145195960998535 128 128 128
69.19496154785156 4.572102069854736 -10.1451997756958 128 128 128
61.50374984741211 0.16085772216320038 -16.293684005737305 128 128 128
62.22014617919922 6.8824968338012695 -9.561070442199707 128 128 128
69.19496154785156 4.5721025466918945 -10.145193099975586 128 128 128
61.56866455078125 6.374326705932617 -9.956133842468262 128 128 128
69.19496154785156 4.572105407714844 -10.1451997756958 128 128 128
62.22013473510742 6.882504940032959 -9.56106185913086 128 128 128
61.734771728515625 6.484513759613037 -9.949020385742188 128 128 128
62.2192268371582 6.882170677185059 -9.560434341430664 128 128 128
69.19287109375 4.574872970581055 -10.145236015319824 128 128 128
69.19495391845703 4.572102069854736 -10.145183563232422 128 128 128
69.19496154785156 4.572102069854736 -10.145195960998535 128 128 128
62.21954345703125 6.882104396820068 -9.561179161071777 128 128 128
61.63132858276367 0.36778196692466736 -16.471996307373047 128 128 128
64.85845947265625 5.210250377655029 -14.726734161376953 128 128 128
-64.17405700683594 -13.781614303588867 -27.890487670898438 128 128 128
-64.1905746459961 -13.776780128479004 -27.795551300048828 128 128 128
-61.67510986328125 -13.668354988098145 -32.470096588134766 128 128 128
-64.32902526855469 -13.73997688293457 -27.153615951538086 128 128 128
-64.19315338134766 -13.774727821350098 -27.782136917114258 128 128 128
-64.199951171875 -13.773073196411133 -27.768526077270508 128 128 128
-64.19800567626953 -13.773591995239258 -27.776582717895508 128 128 128
-64.26473236083984 -13.761085510253906 -27.47040367126465 128 128 128
-64.914306640625 -13.314021110534668 -23.052724838256836 128 128 128
-63.997528076171875 -13.82104206085205 -28.588869094848633 128 128 128
-61.75862503051758 -13.666275024414062 -32.405941009521484 128 128 128
-64.21205139160156 -13.768521308898926 -27.694169998168945 128 128 128
-64.28545379638672 -13.752386093139648 -27.35749053955078 128 128 128
-64.51322937011719 -13.674899101257324 -26.12086296081543 128 128 128
-64.285400390625 -13.75240421295166 -27.357675552368164 128 128 128
-61.607975006103516 -13.667524337768555 -32.5168342590332 128 128 128
-64.28517150878906 -13.75250244140625 -27.3588809967041 128 128 128
-64.29974365234375 -13.745278358459473 -27.280941009521484 128 128 128
-61.5996208190918 -13.668679237365723 -32.52216720581055 128 128 128
-64.19319152832031 -13.774738311767578 -27.781984329223633 128 128 128
-67.96781158447266 -11.124022483825684 22.168973922729492 128 128 128
-67.96604919433594 -11.12423324584961 22.170883178710938 128 128 128
-67.96742248535156 -11.124102592468262 22.169837951660156 128 128 128
-67.96542358398438 -11.124340057373047 22.172605514526367 128 128 128
-67.96540069580078 -11.124346733093262 22.172571182250977 128 128 128
-67.96551513671875 -11.12432861328125 22.172208786010742 128 128 128
-67.96795654296875 -11.123990058898926 22.168535232543945 128 128 128
-67.96765899658203 -11.124064445495605 22.169374465942383 128 128 128
-67.96570587158203 -11.12426471710205 22.171926498413086 128 128 128
-67.96800231933594 -11.123998641967773 22.16853141784668 128 128 128
-62.91040802001953 0.2902238368988037 26.112646102905273 128 128 128
-67.96786499023438 -11.12402057647705 22.16892433166504 128 128 128
-68.39425659179688 -11.02170467376709 21.022436141967773 128 128 128
-66.97293090820312 -11.796216011047363 14.779228210449219 128 128 128
-67.96575927734375 -11.124261856079102 22.171537399291992 128 128 128
-67.95439910888672 -11.126657485961914 22.194679260253906 128 128 128
-71.80889129638672 -8.427982330322266 15.776942253112793 128 128 128
-46.983516693115234 11.47390079498291 42.919166564941406 128 128 128
-67.96979522705078 -11.123723983764648 22.16282081604004 128 128 128
-71.80883026123047 -8.428021430969238 15.777097702026367 128 128 128
-9.363558769226074 -19.46146011352539 65.77448272705078 128 128 128
7.317205905914307 -22.787363052368164 65.7052001953125 128 128 128
-35.576107025146484 -15.311151504516602 59.6027717590332 128 128 128
-34.4864387512207 -15.916946411132812 60.213253021240234 128 128 128
7.48917293548584 -22.856855392456055 65.69598388671875 128 128 128
8.832462310791016 -23.44760513305664 65.62388610839844 128 128 128
6.609685897827148 -22.450027465820312 65.72976684570312 128 128 128
9.697175979614258 -23.797666549682617 65.57074737548828 128 128 128
-20.86449432373047 12.229883193969727 58.9508171081543 128 128 128
7.079697132110596 -22.659870147705078 65.71232604980469 128 128 128
7.557965278625488 -22.882036209106445 65.69170379638672 128 128 128
7.317209720611572 -22.787370681762695 65.7052001953125 128 128 128
8.197378158569336 -23.17661476135254 65.67157745361328 128 128 128
10.131288528442383 -23.99521255493164 65.52777099609375 128 128 128
-33.53532791137695 -16.390907287597656 60.68097686767578 128 128 128
2.323535680770874 -20.886722564697266 65.9254379272461 128 128 128
-24.978981018066406 -17.840957641601562 63.2139778137207 128 128 128
7.162757396697998 -22.71761703491211 65.71174621582031 128 128 128
10.921638488769531 -24.34691619873047 65.46224212646484 128 128 128
7.080873012542725 -22.66030502319336 65.71234893798828 128 128 128
14.422200202941895 -25.747526168823242 64.64717102050781 128 128 128
45.423057556152344 -32.046546936035156 37.89924240112305 128 128 128
37.887550354003906 -30.642112731933594 47.85716247558594 128 128 128
45.424068450927734 -32.050376892089844 37.88902282714844 128 128 128
45.42328643798828 -32.0469970703125 37.8985595703125 128 128 128
22.28407859802246 -27.973379135131836 60.75832748413086 128 128 128
45.29133987426758 -31.272682189941406 39.13441467285156 128 128 128
15.791685104370117 -26.221233367919922 64.11302185058594 128 128 128
15.712574005126953 -26.19295883178711 64.14511108398438 128 128 128
14.702762603759766 -25.827863693237305 64.53096008300781 128 128 128
45.421539306640625 -32.02565383911133 37.90978240966797 128 128 128
15.743608474731445 -26.20438575744629 64.13278198242188 128 128 128
14.381569862365723 -25.730661392211914 64.66063690185547 128 128 128
13.964617729187012 -25.59572410583496 64.79646301269531 128 128 128
45.422969818115234 -32.04661560058594 37.89906311035156 128 128 128
31.001951217651367 -29.0511531829834 54.918521881103516 128 128 128
45.42326736450195 -32.04698944091797 37.89860153198242 128 128 128
14.700684547424316 -25.82716178894043 64.53170776367188 128 128 128
14.854269027709961 -25.886507034301758 64.47517395019531 128 128 128
15.285517692565918 -26.040130615234375 64.3110122680664 128 128 128
-61.34691619873047 33.59560012817383 0.9656471610069275 128 128 128
-56.412471771240234 31.423534393310547 7.322059631347656 128 128 128
-61.35224533081055 33.59281539916992 0.9569582939147949 128 128 128
-61.35028839111328 33.5938606262207 0.9600436091423035 128 128 128
-61.35200500488281 33.59283447265625 0.9560967683792114 128 128 128
-61.35203170776367 33.59278106689453 0.9557574987411499 128 128 128
-61.350868225097656 33.59406661987305 0.9602106809616089 128 128 128
-61.3523063659668 33.59280014038086 0.9571831226348877 128 128 128
-56.412452697753906 31.42357635498047 7.322020530700684 128 128 128
-61.3520622253418 33.59278869628906 0.9558672308921814 128 128 128
-61.352325439453125 33.5928840637207 0.9576929807662964 128 128 128
-56.41249465942383 31.423587799072266 7.322049140930176 128 128 128
-62.88643264770508 33.55963897705078 8.690165519714355 128 128 128
-61.35232162475586 33.5928840637207 0.9576883316040039 128 128 128
-61.3524055480957 33.592750549316406 0.9572229385375977 128 128 128
-61.35205078125 33.59278106689453 0.955852210521698 128 128 128
-56.41249465942383 31.423566818237305 7.322051048278809 128 128 128
-61.35247039794922 33.592777252197266 0.9571747183799744 128 128 128
-61.35232925415039 33.5928840637207 0.9577154517173767 128 128 128
-61.35203170776367 33.593238830566406 0.9593181014060974 128 128 128
-47.79304885864258 28.53525161743164 -42.28214645385742 128 128 128
-43.651485443115234 27.864147186279297 -45.531219482421875 128 128 128
-38.351078033447266 21.188461303710938 -51.4996223449707 128 128 128
-47.87355041503906 28.54159164428711 -42.189640045166016 128 128 128
-43.29808044433594 27.7304744720459 -45.94045639038086 128 128 128
-43.157779693603516 27.686716079711914 -46.070472717285156 128 128 128
-43.75104522705078 27.902969360351562 -45.399147033691406 128 128 128
-47.81201934814453 28.536216735839844 -42.26580810546875 128 128 128
-43.78467559814453 27.91278076171875 -45.36753845214844 128 128 128
-44.417640686035156 28.118675231933594 -44.60231399536133 128 128 128
-43.75120544433594 27.902050018310547 -45.402992248535156 128 128 128
-27.827939987182617 23.504308700561523 -56.965145111083984 128 128 128
-43.449951171875 27.786914825439453 -45.767391204833984 128 128 128
-44.41804504394531 28.118980407714844 -44.60102081298828 128 128 128
-9.862195014953613 17.33721160888672 -64.28873443603516 128 128 128
-14.065225601196289 17.61172103881836 -62.98720932006836 128 128 128
-43.63267517089844 27.8590087890625 -45.54627990722656 128 128 128
-43.41094970703125 27.77119255065918 -45.815452575683594 128 128 128
-42.91943359375 27.60565948486328 -46.300743103027344 128 128 128
-41.79682159423828 27.14803695678711 -47.52821731567383 128 128 128
31.774333953857422 -32.83683395385742 -51.52241516113281 128 128 128
31.954444885253906 -32.82264709472656 -51.38581466674805 128 128 128
53.065528869628906 -37.73395538330078 -23.463857650756836 128 128 128
36.84375762939453 -32.41595458984375 -46.97413635253906 128 128 128
47.87961196899414 -36.343746185302734 -31.815223693847656 128 128 128
54.583648681640625 -38.93431854248047 -20.325651168823242 128 128 128
29.697629928588867 -33.09320068359375 -52.99040222167969 128 128 128
37.705501556396484 -32.322025299072266 -46.05733108520508 128 128 128
32.78857421875 -32.749332427978516 -50.71990203857422 128 128 128
29.576326370239258 -33.10386657714844 -53.07014083862305 128 128 128
29.86387062072754 -33.07730484008789 -52.88227462768555 128 128 128
31.57301902770996 -32.85835266113281 -51.677955627441406 128 128 128
54.58210372924805 -38.93522262573242 -20.32666015625 128 128 128
54.5754508972168 -38.93128967285156 -20.33543586730957 128 128 128
33.07405471801758 -32.7325439453125 -50.48252868652344 128 128 128
41.820457458496094 -36.929969787597656 -40.28147506713867 128 128 128
33.06278991699219 -32.736106872558594 -50.49192810058594 128 128 128
32.3450813293457 -32.79838180541992 -51.08509826660156 128 128 128
54.583560943603516 -38.93438720703125 -20.325698852539062 128 128 128
54.575050354003906 -38.93341064453125 -20.335649490356445 128 128 128
-49.800209045410156 27.44768524169922 -35.243473052978516 128 128 128
-56.433834075927734 31.498966217041016 7.4183807373046875 128 128 128
-49.80021667480469 27.44768714904785 -35.24349594116211 128 128 128
-61.354488372802734 33.59001541137695 0.9492719769477844 128 128 128
-49.80011749267578 27.447795867919922 -35.243873596191406 128 128 128
-49.80020523071289 27.447683334350586 -35.2434196472168 128 128 128
-57.992774963378906 31.31134033203125 -16.812198638916016 128 128 128
-61.63299560546875 32.99345397949219 -2.3797290325164795 128 128 128
-49.800289154052734 27.447635650634766 -35.24331283569336 128 128 128
-57.99806213378906 31.30734634399414 -16.85137367248535 128 128 128
-56.44124984741211 31.52291488647461 7.376760005950928 128 128 128
-49.800270080566406 27.44765853881836 -35.24334716796875 128 128 128
-49.800655364990234 27.447547912597656 -35.24302673339844 128 128 128
-49.80065155029297 27.447561264038086 -35.2430419921875 128 128 128
-61.35186767578125 33.59267807006836 0.9544234275817871 128 128 128
-62.58955764770508 20.055891036987305 -3.361966848373413 128 128 128
-56.44622039794922 31.56317138671875 7.347442626953125 128 128 128
-57.93971252441406 31.330427169799805 -16.987886428833008 128 128 128
-57.22138595581055 12.893457412719727 -25.434022903442383 128 128 128
-49.8004264831543 27.447391510009766 -35.24263381958008 128 128 128
-36.98060989379883 -14.581521034240723 58.65934371948242 128 128 128
-41.64946746826172 -12.219295501708984 54.446929931640625 128 128 128
-67.90735626220703 -11.135025978088379 22.312171936035156 128 128 128
-48.72556686401367 -10.981188774108887 47.789222717285156 128 128 128
-40.616947174072266 -12.725214004516602 55.463558197021484 128 128 128
-39.63149642944336 -13.204743385314941 56.40971755981445 128 128 128
-39.3654899597168 -13.342679977416992 56.65238952636719 128 128 128
-40.67403793334961 -12.699251174926758 55.40884780883789 128 128 128
-63.31163787841797 -11.337945938110352 32.448707580566406 128 128 128
-65.81536865234375 -11.51970100402832 28.476152420043945 128 128 128
-36.75436019897461 -14.689390182495117 58.820274353027344 128 128 128
-40.10813903808594 -12.952730178833008 55.95661163330078 128 128 128
-36.58966827392578 -14.782108306884766 58.93214797973633 128 128 128
-37.5654182434082 -14.3002290725708 58.21598815917969 128 128 128
-47.85954284667969 -9.438138008117676 48.42518997192383 128 128 128
-67.51241302490234 -11.181543350219727 23.45057487487793 128 128 128
-41.55987548828125 -12.271913528442383 54.532630920410156 128 128 128
-41.44976043701172 -12.317086219787598 54.64143753051758 128 128 128
-36.42792510986328 -14.860989570617676 59.04988479614258 128 128 128
-55.60542297363281 -10.769706726074219 41.241580963134766 128 128 128
51.93635940551758 -35.963218688964844 29.16039276123047 128 128 128
51.936256408691406 -35.96318054199219 29.160627365112305 128 128 128
51.93629455566406 -35.963172912597656 29.1606388092041 128 128 128
51.93063735961914 -35.963863372802734 29.14853858947754 128 128 128
51.936302185058594 -35.96318054199219 29.160629272460938 128 128 128
46.36931610107422 -34.19074630737305 33.706844329833984 128 128 128
51.936302185058594 -35.96318054199219 29.16061782836914 128 128 128
51.66239929199219 -35.672630310058594 30.53215217590332 128 128 128
51.936275482177734 -35.96318054199219 29.16063117980957 128 128 128
57.61233901977539 -34.738746643066406 -6.512185573577881 128 128 128
51.936336517333984 -35.963172912597656 29.160608291625977 128 128 128
51.93001937866211 -35.96378707885742 29.148481369018555 128 128 128
51.93558883666992 -35.96256637573242 29.16394805908203 128 128 128
51.936275482177734 -35.96318054199219 29.160627365112305 128 128 128
51.93632125854492 -35.96321105957031 29.160364151000977 128 128 128
51.93634796142578 -35.96320724487305 29.160396575927734 128 128 128
46.369293212890625 -34.19075393676758 33.7067756652832 128 128 128
57.727294921875 -31.848054885864258 3.143270254135132 128 128 128
46.50370788574219 -34.29704284667969 33.51587677001953 128 128 128
20.027509689331055 -1.312440037727356 58.41634750366211 128 128 128
-15.144659996032715 -72.36551666259766 3.2141060829162598 255 0 0
-14.993212699890137 -71.64185333251953 3.181964635848999 255 0 0
-14.841766357421875 -70.91820526123047 3.1498236656188965 255 0 0
-14.69032096862793 -70.19454956054688 3.117682695388794 255 0 0
-14.538872718811035 -69.47089385986328 3.0855414867401123 255 0 0
-14.38742733001709 -68.74723815917969 3.0534005165100098 255 0 0
-14.235980987548828 -68.02359008789062 3.0212595462799072 255 0 0
-14.084534645080566 -67.29993438720703 2.989118814468384 255 0 0
-13.933087348937988 -66.5762710571289 2.956977367401123 255 0 0
-13.781641006469727 -65.85262298583984 2.9248363971710205 255 0 0
-13.630193710327148 -65.12895965576172 2.892695188522339 255 0 0
-13.478747367858887 -64.40531158447266 2.8605542182922363 255 0 0
-13.327301979064941 -63.68165588378906 2.828413248062134 255 0 0
-13.175853729248047 -62.9579963684082 2.796272039413452 255 0 0
-13.024407386779785 -62.23434066772461 2.7641308307647705 255 0 0
-12.872961044311523 -61.51068878173828 2.731990098953247 255 0 0
-12.721513748168945 -60.78703308105469 2.6998488903045654 255 0 0
-12.570068359375 -60.063377380371094 2.667707920074463 255 0 0
-12.418621063232422 -59.3397216796875 2.6355667114257812 255 0 0
-12.267175674438477 -58.61606979370117 2.603425979614258 255 0 0
-12.115727424621582 -57.89241027832031 2.571284532546997 255 0 0
-11.96428108215332 -57.168758392333984 2.5391435623168945 255 0 0
-11.812834739685059 -56.44510269165039 2.507002592086792 255 0 0
-11.661388397216797 -55.7214469909668 2.4748616218566895 255 0 0
-11.509942054748535 -54.9977912902832 2.442720413208008 255 0 0
-11.358494758605957 -54.27413558959961 2.4105794429779053 255 0 0
-11.207049369812012 -53.55048370361328 2.3784384727478027 255 0 0
-11.055601119995117 -52.82682418823242 2.346297264099121 255 0 0
-10.904154777526855 -52.103172302246094 2.3141562938690186 255 0 0
-10.752708435058594 -51.379512786865234 2.282015085220337 255 0 0
-10.601262092590332 -50.655860900878906 2.2498741149902344 255 0 0
-10.44981575012207 -49.93220520019531 2.217733144760132 255 0 0
-10.298369407653809 -49.208553314208984 2.1855921745300293 255 0 0
-10.14692211151123 -48.484893798828125 2.1534509658813477 255 0 0
-9.995475769042969 -47.7612419128418 2.121309995651245 255 0 0
-9.84402847290039 -47.03758239746094 2.0891687870025635 255 0 0
-9.692583084106445 -46.31393051147461 2.057027816772461 255 0 0
-9.541135787963867 -45.590274810791016 2.0248868465423584 255 0 0
-9.389689445495605 -44.86661911010742 1.9927456378936768 255 0 0
-9.238243103027344 -44.142967224121094 1.9606046676635742 255 0 0
-9.086795806884766 -43.419307708740234 1.9284634590148926 255 0 0
-8.935349464416504 -42.69565200805664 1.89632248878479 255 0 0
-8.783902168273926 -41.97199630737305 1.864181399345398 255 0 0
-8.63245677947998 -41.24834442138672 1.8320404291152954 255 0 0
-8.481009483337402 -40.524688720703125 1.7998993396759033 255 0 0
-8.329564094543457 -39.8010368347168 1.7677583694458008 255 0 0
-8.178115844726562 -39.07737731933594 1.7356170415878296 255 0 0
-8.0266695022583 -38.35372543334961 1.7034761905670166 255 0 0
-7.875223159790039 -37.63006591796875 1.671334981918335 255 0 0
-7.7237772941589355 -36.90641403198242 1.639194130897522 255 0 0
-7.572329998016357 -36.18275833129883 1.6070530414581299 255 0 0
-7.4208831787109375 -35.459102630615234 1.5749118328094482 255 0 0
-7.269436359405518 -34.73544692993164 1.5427707433700562 255 0 0
-7.117990493774414 -34.01179504394531 1.5106297731399536 255 0 0
-6.966543674468994 -33.28813552856445 1.4784886837005615 255 0 0
-6.815096855163574 -32.56447982788086 1.4463475942611694 255 0 0
-6.663650989532471 -31.84082794189453 1.414206624031067 255 0 0
-6.512203693389893 -31.117170333862305 1.3820654153823853 255 0 0
-6.360756874084473 -30.393516540527344 1.3499244451522827 255 0 0
-6.209310531616211 -29.66986083984375 1.3177833557128906 255 0 0
-6.057863712310791 -28.946205139160156 1.2856422662734985 255 0 0
-5.906417369842529 -28.222551345825195 1.253501296043396 255 0 0
-5.754971027374268 -27.4988956451416 1.221360206604004 255 0 0
-5.603524684906006 -26.77524185180664 1.1892192363739014 255 0 0
-5.452077388763428 -26.051586151123047 1.1570781469345093 255 0 0
-5.300631046295166 -25.327930450439453 1.1249370574951172 255 0 0
-5.149184703826904 -24.604276657104492 1.0927960872650146 255 0 0
-4.997737884521484 -23.8806209564209 1.0606549978256226 255 0 0
-4.846291542053223 -23.156965255737305 1.0285139083862305 255 0 0
-4.694844722747803 -22.43330955505371 0.9963728189468384 255 0 0
-4.543397903442383 -21.709653854370117 0.9642317295074463 255 0 0
-4.391951084136963 -20.985998153686523 0.932090699672699 255 0 0
-4.240504741668701 -20.262344360351562 0.8999496698379517 255 0 0
-4.089057922363281 -19.53868865966797 0.8678085207939148 255 0 0
-3.9376115798950195 -18.815032958984375 0.8356674909591675 255 0 0
-3.7861649990081787 -18.091379165649414 0.8035265207290649 255 0 0
-3.634718179702759 -17.36772346496582 0.7713853716850281 255 0 0
-3.483271837234497 -16.644067764282227 0.7392443418502808 255 0 0
-3.3318254947662354 -15.920413970947266 0.7071033120155334 255 0 0
-3.1803784370422363 -15.196758270263672 0.6749622225761414 255 0 0
-3.0289318561553955 -14.473102569580078 0.6428211331367493 255 0 0
-2.877485513687134 -13.7494478225708 0.610680103302002 255 0 0
-2.726038694381714 -13.025793075561523 0.5785390734672546 255 0 0
-2.574592351913452 -12.302138328552246 0.5463980436325073 255 0 0
-2.4231457710266113 -11.578482627868652 0.5142569541931152 255 0 0
-2.2716989517211914 -10.854826927185059 0.48211586475372314 255 0 0
-2.1202523708343506 -10.131172180175781 0.44997483491897583 255 0 0
-1.9688057899475098 -9.407516479492188 0.41783374547958374 255 0 0
-1.8173590898513794 -8.68386173248291 0.38569268584251404 255 0 0
-1.6659127473831177 -7.960206985473633 0.3535516560077667 255 0 0
-1.5144659280776978 -7.236551284790039 0.32141056656837463 255 0 0
-1.363019347190857 -6.512896537780762 0.2892695367336273 255 0 0
-1.2115728855133057 -5.789241313934326 0.2571284770965576 255 0 0
-1.0601261854171753 -5.065586090087891 0.22498741745948792 255 0 0
-0.9086795449256897 -4.341930866241455 0.19284634292125702 255 0 0
-0.7572329640388489 -3.6182756423950195 0.16070528328418732 255 0 0
-0.6057864427566528 -2.894620656967163 0.1285642385482788 255 0 0
-0.45433977246284485 -2.1709654331207275 0.09642317146062851 255 0 0
-0.3028932213783264 -1.4473103284835815 0.0642821192741394 255 0 0
-0.1514466106891632 -0.7236551642417908 0.0321410596370697 255 0 0
0.0 0.0 -0.0 255 0 0
0.1514466106891632 0.7236551642417908 -0.0321410596370697 255 0 0
0.3028932213783264 1.4473103284835815 -0.0642821192741394 255 0 0
0.45433977246284485 2.1709654331207275 -0.09642317146062851 255 0 0
0.6057864427566528 2.894620656967163 -0.1285642385482788 255 0 0
0.7572329640388489 3.6182756423950195 -0.16070528328418732 255 0 0
0.9086795449256897 4.341930866241455 -0.19284634292125702 255 0 0
1.0601261854171753 5.065586090087891 -0.22498741745948792 255 0 0
1.2115728855133057 5.789241313934326 -0.2571284770965576 255 0 0
1.363019347190857 6.512896537780762 -0.2892695367336273 255 0 0
1.5144659280776978 7.236551284790039 -0.32141056656837463 255 0 0
1.6659127473831177 7.960206985473633 -0.3535516560077667 255 0 0
1.8173590898513794 8.68386173248291 -0.38569268584251404 255 0 0
1.9688057899475098 9.407516479492188 -0.41783374547958374 255 0 0
2.1202523708343506 10.131172180175781 -0.44997483491897583 255 0 0
2.2716989517211914 10.854826927185059 -0.48211586475372314 255 0 0
2.4231457710266113 11.578482627868652 -0.5142569541931152 255 0 0
2.574592351913452 12.302138328552246 -0.5463980436325073 255 0 0
2.726038694381714 13.025793075561523 -0.5785390734672546 255 0 0
2.877485513687134 13.7494478225708 -0.610680103302002 255 0 0
3.0289318561553955 14.473102569580078 -0.6428211331367493 255 0 0
3.1803784370422363 15.196758270263672 -0.6749622225761414 255 0 0
3.3318254947662354 15.920413970947266 -0.7071033120155334 255 0 0
3.483271837234497 16.644067764282227 -0.7392443418502808 255 0 0
3.634718179702759 17.36772346496582 -0.7713853716850281 255 0 0
3.7861649990081787 18.091379165649414 -0.8035265207290649 255 0 0
3.9376115798950195 18.815032958984375 -0.8356674909591675 255 0 0
4.089057922363281 19.53868865966797 -0.8678085207939148 255 0 0
4.240504741668701 20.262344360351562 -0.8999496698379517 255 0 0
4.391951084136963 20.985998153686523 -0.932090699672699 255 0 0
4.543397903442383 21.709653854370117 -0.9642317295074463 255 0 0
4.694844722747803 22.43330955505371 -0.9963728189468384 255 0 0
4.846291542053223 23.156965255737305 -1.0285139083862305 255 0 0
4.997737884521484 23.8806209564209 -1.0606549978256226 255 0 0
5.149184703826904 24.604276657104492 -1.0927960872650146 255 0 0
5.300631046295166 25.327930450439453 -1.1249370574951172 255 0 0
5.452077388763428 26.051586151123047 -1.1570781469345093 255 0 0
5.603524684906006 26.77524185180664 -1.1892192363739014 255 0 0
5.754971027374268 27.4988956451416 -1.221360206604004 255 0 0
5.906417369842529 28.222551345825195 -1.253501296043396 255 0 0
6.057863712310791 28.946205139160156 -1.2856422662734985 255 0 0
6.209310531616211 29.66986083984375 -1.3177833557128906 255 0 0
6.360756874084473 30.393516540527344 -1.3499244451522827 255 0 0
6.512203693389893 31.117170333862305 -1.3820654153823853 255 0 0
6.663650989532471 31.84082794189453 -1.414206624031067 255 0 0
6.815096855163574 32.56447982788086 -1.4463475942611694 255 0 0
6.966543674468994 33.28813552856445 -1.4784886837005615 255 0 0
7.117990493774414 34.01179504394531 -1.5106297731399536 255 0 0
7.269436359405518 34.73544692993164 -1.5427707433700562 255 0 0
7.4208831787109375 35.459102630615234 -1.5749118328094482 255 0 0
7.572329998016357 36.18275833129883 -1.6070530414581299 255 0 0
