ply
format ascii 1.0
element vertex 701
property float x
property float y
property float z
property uchar red
property uchar green
property uchar blue
end_header
-48.901004791259766 -36.78154373168945 9.799652099609375 128 128 128
-48.85674285888672 -36.814178466796875 9.826374053955078 128 128 128
-7.558656692504883 -53.455753326416016 -37.05792236328125 128 128 128
-8.374275207519531 -50.32011413574219 -35.145206451416016 128 128 128
-9.264626502990723 -45.76797103881836 -31.436378479003906 128 128 128
-7.01806640625 -50.39656066894531 -33.022979736328125 128 128 128
-7.352474689483643 -59.462684631347656 -33.633026123046875 128 128 128
-7.926998138427734 -51.139976501464844 -35.45039749145508 128 128 128
-8.954375267028809 -49.27586364746094 -34.766807556152344 128 128 128
-9.64426326751709 -47.465816497802734 -34.026451110839844 128 128 128
-9.006439208984375 -49.03205871582031 -34.61054611206055 128 128 128
-7.638875484466553 -52.75806427001953 -36.703338623046875 128 128 128
-8.060154914855957 -50.94269943237305 -35.424774169921875 128 128 128
-7.457333087921143 -48.665470123291016 -31.638795852661133 128 128 128
-6.759544372558594 -59.55689239501953 -31.790225982666016 128 128 128
-7.330544471740723 -46.90510940551758 -21.048545837402344 128 128 128
-3.6808907985687256 -53.34342956542969 -28.00819206237793 128 128 128
-8.189441680908203 -50.36289596557617 -34.9463005065918 128 128 128
-5.060230255126953 -51.20804977416992 -29.831958770751953 128 128 128
-7.872490406036377 -51.784576416015625 -36.076316833496094 128 128 128
-9.612916946411133 -44.866004943847656 -31.029157638549805 128 128 128
-7.539406776428223 -46.8116340637207 -28.607887268066406 128 128 128
67.36656188964844 3.2229349613189697 12.419045448303223 128 128 128
72.89847564697266 -1.0171622037887573 18.77145004272461 128 128 128
74.74359893798828 7.141785144805908 9.91711139678955 128 128 128
73.86665344238281 1.449932336807251 19.541065216064453 128 128 128
68.02256774902344 7.242173194885254 11.421893119812012 128 128 128
76.55342102050781 9.590644836425781 16.655113220214844 128 128 128
61.87126541137695 -6.047199726104736 20.346256256103516 128 128 128
71.99324035644531 -2.9972376823425293 16.589038848876953 128 128 128
77.00289154052734 7.948098659515381 16.108732223510742 128 128 128
67.23887634277344 2.4174728393554688 12.636300086975098 128 128 128
71.39025115966797 -3.878922462463379 15.419342041015625 128 128 128
72.8263931274414 8.035411834716797 9.96101188659668 128 128 128
72.22377014160156 8.043033599853516 10.03506851196289 128 128 128
74.3571548461914 2.494004487991333 19.63266372680664 128 128 128
70.29926300048828 -2.6125171184539795 14.499309539794922 128 128 128
67.90145111083984 6.561891555786133 11.547903060913086 128 128 128
68.64704895019531 -1.1991662979125977 13.621943473815918 128 128 128
67.16324615478516 1.2091131210327148 12.984309196472168 128 128 128
72.91673278808594 -0.9901769161224365 18.782567977905273 128 128 128
66.93522644042969 -16.328487396240234 15.894752502441406 128 128 128
-52.54810333251953 -34.894405364990234 9.425749778747559 128 128 128
-58.72964859008789 -33.86079788208008 4.300400733947754 128 128 128
-54.664161682128906 -28.555538177490234 8.307806968688965 128 128 128
-59.096736907958984 -31.361345291137695 3.809413194656372 128 128 128
-52.04076385498047 -35.24262619018555 9.715703010559082 128 128 128
-59.292022705078125 -30.718496322631836 3.6628024578094482 128 128 128
-54.44841384887695 -30.81702995300293 7.919985771179199 128 128 128
-53.95807647705078 -31.75231170654297 8.092976570129395 128 128 128
-52.30556869506836 -35.04623031616211 9.527274131774902 128 128 128
-58.246341705322266 -35.25862503051758 5.368060111999512 128 128 128
-52.62963104248047 -34.84601593017578 9.387833595275879 128 128 128
-53.94290542602539 -32.63059997558594 8.14230728149414 128 128 128
-55.577667236328125 -34.12580490112305 7.517578125 128 128 128
-54.87932586669922 -26.862579345703125 8.574361801147461 128 128 128
-54.160011291503906 -32.87983322143555 8.077341079711914 128 128 128
-58.412010192871094 -35.29356002807617 5.1126790046691895 128 128 128
-59.260372161865234 -30.791746139526367 3.684957504272461 128 128 128
-59.54434585571289 -30.07225799560547 3.483294725418091 128 128 128
-57.79232406616211 -35.0895881652832 5.835757732391357 128 128 128
-58.33723831176758 -35.288692474365234 5.210268497467041 128 128 128
28.50899314880371 15.425074577331543 58.68500900268555 128 128 128
32.828731536865234 10.063323020935059 64.94010925292969 128 128 128
28.592283248901367 15.73287296295166 58.42717742919922 128 128 128
33.192481994628906 10.308211326599121 65.02204895019531 128 128 128
28.73192024230957 15.877119064331055 58.001678466796875 128 128 128
30.39290428161621 21.775238037109375 57.008544921875 128 128 128
33.99059295654297 15.795469284057617 48.14801788330078 128 128 128
36.0228385925293 14.974626541137695 63.970619201660156 128 128 128
35.44880676269531 12.19225025177002 64.95303344726562 128 128 128
30.739727020263672 21.59532356262207 55.70966720581055 128 128 128
35.85845947265625 15.925008773803711 63.62379455566406 128 128 128
30.401229858398438 21.68470001220703 57.13600540161133 128 128 128
28.477155685424805 15.314411163330078 58.81782150268555 128 128 128
28.511905670166016 15.468570709228516 58.70088577270508 128 128 128
34.866966247558594 18.10409927368164 63.01129913330078 128 128 128
28.511306762695312 15.405220985412598 58.692073822021484 128 128 128
36.023189544677734 13.670711517333984 64.40034484863281 128 128 128
34.84180450439453 18.14646339416504 63.001861572265625 128 128 128
28.505451202392578 15.419920921325684 58.67518997192383 128 128 128
30.224306106567383 20.45055389404297 58.126380920410156 128 128 128
40.54543685913086 -52.79450607299805 7.588602066040039 128 128 128
14.070603370666504 -31.235933303833008 34.2537727355957 128 128 128
47.331851959228516 -44.59642791748047 14.702078819274902 128 128 128
57.882450103759766 -40.18537521362305 20.76244354248047 128 128 128
51.3752555847168 -39.584999084472656 13.810720443725586 128 128 128
53.21806716918945 -42.86448669433594 18.0806941986084 128 128 128
40.05027770996094 -41.64420700073242 16.053682327270508 128 128 128
51.74674606323242 -38.984798431396484 13.728433609008789 128 128 128
49.13044738769531 -43.97187805175781 15.387771606445312 128 128 128
62.70001220703125 -38.55052185058594 18.248329162597656 128 128 128
46.001792907714844 -45.21864318847656 14.226999282836914 128 128 128
57.72353744506836 -40.25020980834961 20.805152893066406 128 128 128
51.78126907348633 -38.946815490722656 13.724267959594727 128 128 128
55.980018615722656 -41.22569274902344 20.663658142089844 128 128 128
56.6961669921875 -40.6756706237793 21.00242042541504 128 128 128
47.33580017089844 -44.59492111206055 14.70205020904541 128 128 128
47.949459075927734 -44.34922409057617 14.938719749450684 128 128 128
51.74658203125 -39.016517639160156 13.728116989135742 128 128 128
51.84693908691406 -38.96732711791992 13.69460391998291 128 128 128
50.103858947753906 -43.697052001953125 15.8529052734375 128 128 128
-17.879741668701172 -40.37242889404297 39.55947494506836 128 128 128
-19.130830764770508 -40.270240783691406 38.805397033691406 128 128 128
-13.964621543884277 -41.544315338134766 42.41266632080078 128 128 128
9.943231582641602 -32.585914611816406 60.15327835083008 128 128 128
11.693957328796387 -32.65180969238281 61.23502731323242 128 128 128
-16.23296546936035 -46.57701110839844 40.605621337890625 128 128 128
-4.536405086517334 -37.7502326965332 48.366798400878906 128 128 128
-18.77349281311035 -40.324554443359375 39.13669967651367 128 128 128
-13.270994186401367 -41.487770080566406 42.66311264038086 128 128 128
-0.674816370010376 -35.239593505859375 53.67518615722656 128 128 128
12.145174026489258 -32.639469146728516 61.52305603027344 128 128 128
-8.156431198120117 -37.761131286621094 31.541786193847656 128 128 128
-12.451363563537598 -41.36441421508789 42.96724319458008 128 128 128
-9.209736824035645 -40.16191864013672 44.50429153442383 128 128 128
-18.83357810974121 -49.62225341796875 39.10453796386719 128 128 128
-17.678510665893555 -39.711544036865234 34.80754470825195 128 128 128
-15.655573844909668 -42.31494140625 41.89117431640625 128 128 128
6.7344465255737305 -32.60969924926758 58.64418411254883 128 128 128
-21.624771118164062 -40.22443771362305 37.93242263793945 128 128 128
6.206511974334717 -32.68690490722656 58.41161346435547 128 128 128
-16.370147705078125 -54.81654357910156 -36.98629379272461 128 128 128
-16.050331115722656 -56.04788589477539 -36.3734245300293 128 128 128
-17.812145233154297 -55.96484375 -27.432735443115234 128 128 128
-6.982932090759277 -59.56330490112305 -32.69612503051758 128 128 128
-7.698697566986084 -59.33379364013672 -34.30299377441406 128 128 128
-8.902262687683105 -50.18123245239258 -35.67576599121094 128 128 128
-15.450841903686523 -50.55121994018555 -39.226951599121094 128 128 128
-15.83924388885498 -53.979251861572266 -37.72502899169922 128 128 128
-14.957242012023926 -48.553897857666016 -39.47348403930664 128 128 128
-7.7523932456970215 -59.30684280395508 -34.39769744873047 128 128 128
-16.63683319091797 -55.770835876464844 -36.13446044921875 128 128 128
-7.676188945770264 -59.34424591064453 -34.258033752441406 128 128 128
-15.145615577697754 -49.54822540283203 -39.42136764526367 128 128 128
-15.484870910644531 -50.847190856933594 -39.149559020996094 128 128 128
-7.96250057220459 -59.19373321533203 -34.7573356628418 128 128 128
-8.551162719726562 -58.83148193359375 -35.55430221557617 128 128 128
-7.9561662673950195 -59.196250915527344 -34.750553131103516 128 128 128
-11.51444149017334 -48.35561752319336 -36.982826232910156 128 128 128
-15.02420425415039 -49.18120193481445 -39.432586669921875 128 128 128
-8.684160232543945 -50.34650421142578 -35.581241607666016 128 128 128
58.57011032104492 11.475552558898926 35.883140563964844 128 128 128
15.960738182067871 -18.865272521972656 54.33622741699219 128 128 128
18.369157791137695 -18.10597801208496 54.77946090698242 128 128 128
31.02593994140625 7.161014556884766 63.23739242553711 128 128 128
28.512300491333008 -0.5231209993362427 62.10379409790039 128 128 128
31.014320373535156 6.979944705963135 63.130977630615234 128 128 128
15.638690948486328 -18.784276962280273 54.12825012207031 128 128 128
22.43328857421875 -12.318479537963867 62.032772064208984 128 128 128
16.085716247558594 -18.98256492614746 54.476661682128906 128 128 128
30.953433990478516 6.444620609283447 62.62725830078125 128 128 128
22.872356414794922 -11.198334693908691 62.35109329223633 128 128 128
31.397733688354492 -11.280731201171875 45.93918991088867 128 128 128
24.5250301361084 -7.2367963790893555 63.09077453613281 128 128 128
31.06620979309082 8.12157154083252 63.886558532714844 128 128 128
30.99599838256836 7.503633975982666 63.52851104736328 128 128 128
30.95192527770996 7.5598883628845215 63.552940368652344 128 128 128
21.228002548217773 -15.528547286987305 61.37480926513672 128 128 128
15.518498420715332 -19.14399528503418 54.376216888427734 128 128 128
15.420074462890625 -18.701078414916992 53.95028305053711 128 128 128
31.002471923828125 7.825364589691162 63.7303352355957 128 128 128
-3.0878336429595947 74.35929870605469 12.13286304473877 128 128 128
-3.1350746154785156 74.39389038085938 12.068527221679688 128 128 128
-1.9166682958602905 72.86946105957031 14.157564163208008 128 128 128
10.780960083007812 65.25435638427734 25.821468353271484 128 128 128
10.054760932922363 62.28987121582031 23.884565353393555 128 128 128
-2.01112961769104 72.96263885498047 14.012373924255371 128 128 128
9.343377113342285 64.69535064697266 -2.6787564754486084 128 128 128
1.541961908340454 69.2623062133789 18.282182693481445 128 128 128
1.4105849266052246 62.575626373291016 13.118715286254883 128 128 128
0.23666247725486755 61.138187408447266 5.1159563064575195 128 128 128
-8.825301170349121 68.80931091308594 12.922759056091309 128 128 128
14.20376968383789 63.5488166809082 27.964872360229492 128 128 128
-0.7127377986907959 71.52243041992188 15.68007755279541 128 128 128
-5.530441761016846 63.33351135253906 6.9417195320129395 128 128 128
-5.1309990882873535 64.82848358154297 10.89773178100586 128 128 128
5.177277565002441 67.10527038574219 21.67976951599121 128 128 128
-7.206924915313721 65.28723907470703 9.65099811553955 128 128 128
-0.13854801654815674 71.02250671386719 16.255876541137695 128 128 128
-3.837728261947632 73.4986801147461 12.985738754272461 128 128 128
2.813164710998535 68.36032104492188 19.583093643188477 128 128 128
-58.090782165527344 -3.5477044582366943 -7.765815258026123 128 128 128
-47.13673782348633 -23.51532745361328 3.6332128047943115 128 128 128
-62.67245864868164 2.9663519859313965 -15.245512008666992 128 128 128
-62.860355377197266 3.4389631748199463 -15.482118606567383 128 128 128
-59.71756362915039 3.4721436500549316 -10.10529899597168 128 128 128
-45.35331344604492 -24.7258243560791 7.549753189086914 128 128 128
-45.70755386352539 -22.70260238647461 5.82936954498291 128 128 128
-46.34531021118164 -22.94135093688965 4.742264270782471 128 128 128
-60.03009796142578 3.5638267993927 -10.615132331848145 128 128 128
-59.20061111450195 1.072712779045105 -9.876715660095215 128 128 128
-62.7014045715332 3.0321693420410156 -15.27414321899414 128 128 128
-58.47755432128906 -13.806151390075684 -3.729111909866333 128 128 128
-59.333858489990234 0.9938048124313354 -10.142370223999023 128 128 128
-49.60177230834961 -23.91924285888672 1.5464951992034912 128 128 128
-47.247859954833984 -29.036060333251953 0.3156611919403076 128 128 128
-64.22838592529297 7.131558895111084 -17.108503341674805 128 128 128
-64.37395477294922 7.691561698913574 -17.297157287597656 128 128 128
-48.2956428527832 -14.571346282958984 -4.054291725158691 128 128 128
-62.74777603149414 3.1520466804504395 -15.342798233032227 128 128 128
-59.33012008666992 0.273851215839386 -10.129138946533203 128 128 128
46.54705810546875 -44.9097785949707 14.470422744750977 128 128 128
24.59768295288086 -59.45562744140625 -5.150052547454834 128 128 128
41.4644660949707 -51.28492736816406 9.038517951965332 128 128 128
33.079837799072266 -58.1546630859375 1.0776616334915161 128 128 128
20.042911529541016 -53.53305435180664 1.8489313125610352 128 128 128
26.091798782348633 -59.029720306396484 -3.6933836936950684 128 128 128
27.108440399169922 -65.91018676757812 0.3671629726886749 128 128 128
25.258956909179688 -59.24979782104492 -4.507626056671143 128 128 128
26.491497039794922 -58.97535705566406 -3.358272075653076 128 128 128
20.053552627563477 -53.425296783447266 2.103931188583374 128 128 128
30.453350067138672 -58.6297492980957 -0.519946813583374 128 128 128
28.26590347290039 -58.66181945800781 -1.8650450706481934 128 128 128
29.93204116821289 -58.464141845703125 -0.6920033097267151 128 128 128
27.297969818115234 -48.21391296386719 11.06961441040039 128 128 128
27.153362274169922 -65.89431762695312 0.3766777813434601 128 128 128
37.632469177246094 -55.88029861450195 4.303551197052002 128 128 128
27.75464630126953 -65.67717742919922 0.3525538146495819 128 128 128
20.188873291015625 -53.1813850402832 2.683076858520508 128 128 128
26.782318115234375 -66.00160217285156 0.3572996258735657 128 128 128
27.377647399902344 -65.82743835449219 0.3707655668258667 128 128 128
22.662485122680664 50.40841293334961 43.23073196411133 128 128 128
21.291629791259766 52.2536506652832 41.70789337158203 128 128 128
29.266265869140625 30.644556045532227 52.629520416259766 128 128 128
22.118864059448242 50.98523712158203 42.857791900634766 128 128 128
28.923534393310547 39.0587043762207 49.04569625854492 128 128 128
28.743038177490234 46.03215026855469 45.82279586791992 128 128 128
30.421772003173828 22.120595932006836 56.689964294433594 128 128 128
28.17786407470703 53.983848571777344 47.14173889160156 128 128 128
32.0146598815918 20.456356048583984 62.21568298339844 128 128 128
27.100826263427734 47.83636474609375 45.548309326171875 128 128 128
30.042346954345703 27.94853973388672 52.53208541870117 128 128 128
30.616661071777344 20.9898681640625 60.035526275634766 128 128 128
28.026134490966797 35.971431732177734 52.47020721435547 128 128 128
28.1109619140625 54.67059326171875 46.445064544677734 128 128 128
21.41562843322754 51.96358871459961 42.01839828491211 128 128 128
21.482948303222656 51.83781433105469 42.15924835205078 128 128 128
28.325206756591797 46.6899528503418 46.254940032958984 128 128 128
29.427780151367188 44.72950744628906 45.137611389160156 128 128 128
33.3507080078125 48.12935256958008 28.618789672851562 128 128 128
28.158065795898438 54.07752227783203 47.0576057434082 128 128 128
17.379192352294922 -65.38616943359375 -4.0146613121032715 128 128 128
21.068315505981445 -59.618873596191406 -7.423938274383545 128 128 128
21.31153678894043 -59.725067138671875 -7.387112140655518 128 128 128
1.7967557907104492 -58.23860549926758 7.486792087554932 128 128 128
19.928380966186523 -65.90474700927734 -0.20087529718875885 128 128 128
17.80575942993164 -57.751853942871094 -7.297062397003174 128 128 128
18.823898315429688 -65.74357604980469 -0.8525723218917847 128 128 128
21.745710372924805 -59.80592727661133 -7.251309871673584 128 128 128
16.18865203857422 -56.458763122558594 -6.389233112335205 128 128 128
20.460636138916016 -59.20696258544922 -7.40789270401001 128 128 128
17.32032585144043 -57.40311050415039 -7.124969005584717 128 128 128
18.96202850341797 -65.7818374633789 -0.45738011598587036 128 128 128
19.3399658203125 -65.82849884033203 -0.36822158098220825 128 128 128
20.735877990722656 -65.97283172607422 -0.08891855925321579 128 128 128
17.00412940979004 -64.93148040771484 -6.077248573303223 128 128 128
16.928848266601562 -64.76888275146484 -6.527050971984863 128 128 128
16.16020965576172 -56.477699279785156 -6.439979553222656 128 128 128
17.248470306396484 -64.65800476074219 -6.546275615692139 128 128 128
21.393796920776367 -59.72542190551758 -7.348522186279297 128 128 128
16.399288177490234 -64.7886734008789 -6.865261554718018 128 128 128
54.88572692871094 -37.188053131103516 12.804505348205566 128 128 128
64.13809204101562 -35.30821228027344 16.901216506958008 128 128 128
63.72059631347656 -37.2605094909668 17.55116081237793 128 128 128
60.460445404052734 -32.48500442504883 14.527572631835938 128 128 128
55.69093322753906 -36.827171325683594 12.562538146972656 128 128 128
57.17254638671875 -36.112213134765625 12.169087409973145 128 128 128
64.36341857910156 -22.152341842651367 16.181367874145508 128 128 128
63.58578872680664 -37.53105545043945 17.665918350219727 128 128 128
54.828590393066406 -42.116600036621094 19.462594985961914 128 128 128
61.936485290527344 -31.09634780883789 15.554863929748535 128 128 128
56.95512008666992 -36.24359893798828 12.193605422973633 128 128 128
62.2929573059082 -30.723726272583008 15.556648254394531 128 128 128
48.63623809814453 -30.65385627746582 23.980321884155273 128 128 128
63.99405288696289 -33.8527946472168 16.388277053833008 128 128 128
62.81074523925781 -28.54981231689453 15.82107925415039 128 128 128
60.742431640625 -32.10548400878906 14.979933738708496 128 128 128
62.149837493896484 -30.87916374206543 15.516982078552246 128 128 128
69.40287017822266 -12.590937614440918 15.254694938659668 128 128 128
71.27570343017578 -6.092033386230469 15.083822250366211 128 128 128
63.97265625 -36.66019058227539 17.307279586791992 128 128 128
-20.29391860961914 -10.460474967956543 -53.18801498413086 128 128 128
-26.581031799316406 -15.703070640563965 -62.4111328125 128 128 128
-21.70180320739746 -3.464766502380371 -59.63089370727539 128 128 128
-21.533960342407227 0.18691477179527283 -57.0050163269043 128 128 128
-26.513668060302734 -10.017977714538574 -62.01228332519531 128 128 128
-20.747774124145508 -8.197149276733398 -52.21908950805664 128 128 128
-21.86250877380371 -4.242504119873047 -60.25852584838867 128 128 128
-20.587129592895508 -8.986869812011719 -52.478580474853516 128 128 128
-20.219011306762695 -12.470351219177246 -53.15909957885742 128 128 128
-26.55350685119629 -9.947208404541016 -61.9688835144043 128 128 128
-23.64595603942871 1.2545500993728638 -52.30590057373047 128 128 128
-20.397544860839844 -13.559924125671387 -59.93876647949219 128 128 128
-21.550477981567383 -2.5374441146850586 -57.72798156738281 128 128 128
-24.813743591308594 -10.357759475708008 -62.54146194458008 128 128 128
-23.465120315551758 -14.232623100280762 -62.50410079956055 128 128 128
-26.384449005126953 -16.92132568359375 -62.27305221557617 128 128 128
-20.433088302612305 -13.52086353302002 -60.0518684387207 128 128 128
-22.137943267822266 -10.045719146728516 -61.77067947387695 128 128 128
-21.278709411621094 -5.518037796020508 -51.896400451660156 128 128 128
-23.49535369873047 -8.067011833190918 -62.05621337890625 128 128 128
-22.082748413085938 -21.2200927734375 -60.43429183959961 128 128 128
-15.082134246826172 -47.52622985839844 -39.64518356323242 128 128 128
-14.576467514038086 -38.713504791259766 -35.41722869873047 128 128 128
-18.329620361328125 -28.55771827697754 -54.642757415771484 128 128 128
-12.94792652130127 -41.937435150146484 -34.73539352416992 128 128 128
-12.339165687561035 -44.88444137573242 -35.933101654052734 128 128 128
-22.063297271728516 -21.236364364624023 -60.41585159301758 128 128 128
-15.778901100158691 -45.073734283447266 -40.57481384277344 128 128 128
-16.53779411315918 -42.16640090942383 -42.46316909790039 128 128 128
-22.0299072265625 -21.27667236328125 -60.38861846923828 128 128 128
-14.887508392333984 -47.31414794921875 -39.51509094238281 128 128 128
-13.320877075195312 -42.544071197509766 -35.86614227294922 128 128 128
-12.329854965209961 -43.95866775512695 -35.2022819519043 128 128 128
-14.030475616455078 -39.37391662597656 -34.70317840576172 128 128 128
-11.985312461853027 -44.42624282836914 -35.003578186035156 128 128 128
-15.754055976867676 -45.17878723144531 -40.51905059814453 128 128 128
-15.267828941345215 -46.96161651611328 -39.83402633666992 128 128 128
-17.499711990356445 -38.367286682128906 -47.018001556396484 128 128 128
-20.749065399169922 -23.202444076538086 -58.967323303222656 128 128 128
-11.269171714782715 -45.033023834228516 -34.38419723510742 128 128 128
-31.720230102539062 60.87324523925781 -4.665164947509766 128 128 128
-42.219539642333984 51.86103820800781 -16.697063446044922 128 128 128
-38.47992706298828 52.176395416259766 -9.456645965576172 128 128 128
-24.82538604736328 63.82683181762695 -3.946594476699829 128 128 128
-38.08988571166992 59.56797409057617 -11.86975383758545 128 128 128
-14.10818099975586 67.85279083251953 3.8158376216888428 128 128 128
-38.684051513671875 53.52732467651367 -8.421749114990234 128 128 128
-41.50453567504883 53.41254425048828 -16.969385147094727 128 128 128
-43.16655731201172 47.584381103515625 -16.241487503051758 128 128 128
-41.714725494384766 49.983943939208984 -9.510162353515625 128 128 128
-43.16127014160156 47.01725769042969 -10.287575721740723 128 128 128
-38.55429458618164 53.2742805480957 -8.631669998168945 128 128 128
-31.693239212036133 51.828548431396484 -12.567813873291016 128 128 128
-39.247520446777344 57.0857048034668 -15.969472885131836 128 128 128
-36.873226165771484 55.76132583618164 -7.474897384643555 128 128 128
-43.070579528808594 47.261497497558594 -10.223386764526367 128 128 128
-37.477867126464844 60.012367248535156 -9.754430770874023 128 128 128
-40.97779083251953 54.27451705932617 -17.02077865600586 128 128 128
-39.314109802246094 57.13496017456055 -15.835143089294434 128 128 128
-42.446067810058594 51.36572265625 -16.656997680664062 128 128 128
-57.779624938964844 -17.892141342163086 -1.108054757118225 128 128 128
-45.50096130371094 -24.311019897460938 7.33650541305542 128 128 128
-56.78264617919922 -24.301347732543945 6.690870761871338 128 128 128
-59.54509735107422 -7.688582897186279 -7.656857490539551 128 128 128
-57.365882873535156 -21.53523826599121 3.581010341644287 128 128 128
-58.54821014404297 -20.444074630737305 1.1818625926971436 128 128 128
-47.517093658447266 -28.413503646850586 0.952381432056427 128 128 128
-60.81238555908203 -25.00303840637207 1.9871010780334473 128 128 128
-50.380088806152344 -23.80790138244629 4.089193344116211 128 128 128
-60.71529006958008 -2.410834550857544 -13.01314926147461 128 128 128
-55.81899642944336 -24.690305709838867 7.426321506500244 128 128 128
-60.33015060424805 -23.45479393005371 1.8920998573303223 128 128 128
-58.863975524902344 -5.226312160491943 -8.04189682006836 128 128 128
-60.848167419433594 -25.36172103881836 2.022794246673584 128 128 128
-58.24671173095703 -21.922748565673828 3.690753936767578 128 128 128
-60.8111686706543 -25.109844207763672 1.972537875175476 128 128 128
-57.9575309753418 -16.23739242553711 -2.265477418899536 128 128 128
-60.84454345703125 -25.29776382446289 2.0131993293762207 128 128 128
-54.61570358276367 -21.703454971313477 3.1457858085632324 128 128 128
-61.44623565673828 -0.36906594038009644 -14.137126922607422 128 128 128
18.593299865722656 55.427093505859375 28.36150360107422 128 128 128
21.860910415649414 62.820281982421875 32.09368896484375 128 128 128
20.098970413208008 55.31087875366211 37.17961120605469 128 128 128
24.924707412719727 60.129486083984375 36.58772659301758 128 128 128
24.011167526245117 60.93840026855469 35.05497741699219 128 128 128
23.247167587280273 61.77570343017578 33.610816955566406 128 128 128
24.920644760131836 60.122493743896484 36.60301971435547 128 128 128
21.199954986572266 54.25090789794922 29.55137062072754 128 128 128
20.092329025268555 55.30984115600586 37.170814514160156 128 128 128
18.95075225830078 56.262046813964844 33.32667922973633 128 128 128
16.7803955078125 60.82297897338867 29.985219955444336 128 128 128
28.023910522460938 57.359554290771484 42.4075813293457 128 128 128
25.62902069091797 59.639896392822266 37.63296890258789 128 128 128
27.239564895629883 58.49700927734375 40.06958770751953 128 128 128
20.657901763916016 53.900245666503906 39.452857971191406 128 128 128
15.929093360900879 55.86632537841797 25.2611026763916 128 128 128
43.98111343383789 48.569068908691406 4.730363368988037 128 128 128
20.49095344543457 54.59807586669922 29.021589279174805 128 128 128
28.06839942932129 57.263431549072266 42.6008186340332 128 128 128
20.785675048828125 54.52626037597656 30.087276458740234 128 128 128
-47.17292022705078 -31.382484436035156 3.21201229095459 128 128 128
-52.125614166259766 -25.876384735107422 10.48011589050293 128 128 128
-45.06672286987305 -26.434078216552734 9.05507755279541 128 128 128
-49.57658386230469 -26.971281051635742 12.911314010620117 128 128 128
-56.076297760009766 -25.27283477783203 7.619107723236084 128 128 128
-55.753929138183594 -25.663373947143555 7.941308975219727 128 128 128
-50.66336441040039 -28.517240524291992 -5.953271389007568 128 128 128
-45.16960906982422 -25.830991744995117 8.539999008178711 128 128 128
-47.158241271972656 -28.787771224975586 -0.23462504148483276 128 128 128
-45.47492599487305 -25.468725204467773 8.630126953125 128 128 128
-55.449859619140625 -25.716724395751953 8.122834205627441 128 128 128
-47.24068832397461 -30.700387954711914 2.3778154850006104 128 128 128
-54.13395690917969 -26.470458984375 9.081707000732422 128 128 128
-55.584774017333984 -25.615610122680664 8.042552947998047 128 128 128
-47.23104476928711 -31.398635864257812 3.1832709312438965 128 128 128
-42.45870590209961 -30.6843204498291 9.48255729675293 128 128 128
-55.368255615234375 -25.894031524658203 8.219132423400879 128 128 128
-41.99253845214844 -31.34506607055664 10.086247444152832 128 128 128
-43.25899887084961 -29.484058380126953 9.470446586608887 128 128 128
-55.59168243408203 -25.686878204345703 8.039422035217285 128 128 128
-64.85134887695312 9.929728507995605 -17.797733306884766 128 128 128
-59.49654006958008 3.0058765411376953 -9.937273979187012 128 128 128
-61.26597595214844 15.822152137756348 -11.257256507873535 128 128 128
-64.93592071533203 10.784324645996094 -17.93970489501953 128 128 128
-59.38209533691406 10.962825775146484 -9.00688648223877 128 128 128
-48.78606033325195 -1.3326127529144287 -11.122517585754395 128 128 128
-64.93879699707031 11.553799629211426 -18.0440616607666 128 128 128
-55.84260559082031 11.907231330871582 -10.4100923538208 128 128 128
-59.53192901611328 5.699477195739746 -9.327974319458008 128 128 128
-59.669944763183594 4.112805366516113 -9.97931957244873 128 128 128
-59.893943786621094 12.66972827911377 -9.339889526367188 128 128 128
-59.53038024902344 11.076266288757324 -8.938437461853027 128 128 128
-59.313270568847656 11.610389709472656 -9.208649635314941 128 128 128
-48.67798614501953 -0.11522598564624786 -11.487194061279297 128 128 128
-59.40217971801758 3.240060806274414 -9.740301132202148 128 128 128
-64.6899642944336 13.95767593383789 -17.93163299560547 128 128 128
-49.28660583496094 -2.017223596572876 -10.60190200805664 128 128 128
-48.2475471496582 3.6128695011138916 -12.052270889282227 128 128 128
-59.52294158935547 6.175088405609131 -9.141633033752441 128 128 128
-55.117431640625 1.195167899131775 -10.32607650756836 128 128 128
-41.615169525146484 39.47001266479492 -14.531575202941895 128 128 128
-43.08341598510742 45.84396743774414 -15.603431701660156 128 128 128
-53.596946716308594 12.834269523620605 -11.309066772460938 128 128 128
-51.55030822753906 34.82353591918945 -18.650434494018555 128 128 128
-40.96105194091797 43.668785095214844 -13.652848243713379 128 128 128
-34.84514236450195 45.366275787353516 -16.199602127075195 128 128 128
-63.366294860839844 17.28509521484375 -15.63838005065918 128 128 128
-62.1204948425293 17.206586837768555 -13.407217979431152 128 128 128
-39.320430755615234 45.078365325927734 -13.950894355773926 128 128 128
-43.994781494140625 43.21770477294922 -17.468069076538086 128 128 128
-50.065433502197266 6.235479831695557 -19.382539749145508 128 128 128
-49.482791900634766 18.269502639770508 -13.78879165649414 128 128 128
-42.76232147216797 42.376869201660156 -12.705939292907715 128 128 128
-51.430362701416016 11.836458206176758 -11.226556777954102 128 128 128
-50.2292594909668 9.754050254821777 -10.562301635742188 128 128 128
-59.82584762573242 15.662064552307129 -11.256659507751465 128 128 128
-59.41340637207031 25.05962371826172 -16.2784481048584 128 128 128
-51.161460876464844 30.372495651245117 -12.04782772064209 128 128 128
-61.42377853393555 19.819433212280273 -16.17478370666504 128 128 128
-63.291961669921875 17.379581451416016 -16.6022891998291 128 128 128
-10.651176452636719 22.394577026367188 -67.10028076171875 128 128 128
-4.16283655166626 26.853382110595703 -59.52420425415039 128 128 128
-6.183836936950684 25.52630615234375 -60.17856979370117 128 128 128
-10.355969429016113 23.30408477783203 -67.33739471435547 128 128 128
-10.687155723571777 26.72191619873047 -67.3204345703125 128 128 128
-14.46444320678711 15.127274513244629 -63.373348236083984 128 128 128
-14.61749267578125 34.64128112792969 -51.36942672729492 128 128 128
-5.132662296295166 26.082881927490234 -59.96708679199219 128 128 128
-17.48050880432129 8.78530216217041 -61.39200210571289 128 128 128
-22.0538330078125 28.719837188720703 -49.35688781738281 128 128 128
-10.417336463928223 24.17340850830078 -59.73946762084961 128 128 128
-2.240748167037964 29.75153350830078 -57.400699615478516 128 128 128
-8.222010612487793 24.739917755126953 -60.10462188720703 128 128 128
-21.99717903137207 -4.82900333404541 -60.602169036865234 128 128 128
-3.3294034004211426 27.775615692138672 -58.83561706542969 128 128 128
-11.228311538696289 21.3015079498291 -65.96957397460938 128 128 128
-10.329071998596191 23.51976776123047 -67.34428405761719 128 128 128
-11.750770568847656 20.515493392944336 -64.86138153076172 128 128 128
-5.200675964355469 25.89144515991211 -60.61113739013672 128 128 128
-15.957635879516602 11.893078804016113 -62.490474700927734 128 128 128
30.989852905273438 56.86113739013672 -39.56496047973633 128 128 128
31.003250122070312 48.52657699584961 -33.100894927978516 128 128 128
30.991127014160156 56.868900299072266 -39.4987907409668 128 128 128
41.387237548828125 49.986541748046875 -28.902496337890625 128 128 128
58.062076568603516 47.98019027709961 -16.182693481445312 128 128 128
30.69302749633789 48.543052673339844 -33.3245735168457 128 128 128
55.545127868652344 47.893402099609375 -17.506242752075195 128 128 128
37.089263916015625 49.65224838256836 -30.510807037353516 128 128 128
33.330101013183594 54.970848083496094 -36.9454231262207 128 128 128
30.465824127197266 57.23570251464844 -40.13241958618164 128 128 128
28.65771484375 48.72795486450195 -37.45802688598633 128 128 128
45.56565856933594 48.78423309326172 -26.584884643554688 128 128 128
32.27183151245117 55.79460144042969 -38.33311080932617 128 128 128
28.97535514831543 48.659271240234375 -35.38423538208008 128 128 128
35.49722671508789 52.22257995605469 -32.14216613769531 128 128 128
53.16044235229492 47.6684455871582 -19.079498291015625 128 128 128
33.76206970214844 54.63079071044922 -36.074928283691406 128 128 128
35.72771072387695 52.00981521606445 -31.837472915649414 128 128 128
30.496410369873047 48.56387710571289 -33.474403381347656 128 128 128
28.80748748779297 48.685428619384766 -37.09181213378906 128 128 128
14.133645057678223 -64.77998352050781 -8.529593467712402 128 128 128
10.547905921936035 -56.27651596069336 -8.587523460388184 128 128 128
-1.135133147239685 -58.814208984375 -24.6806583404541 128 128 128
5.404229164123535 -62.495365142822266 -17.779117584228516 128 128 128
13.180193901062012 -64.61803436279297 -9.4423189163208 128 128 128
8.011568069458008 -62.90920639038086 -14.602934837341309 128 128 128
10.356546401977539 -63.43586730957031 -12.295361518859863 128 128 128
13.682534217834473 -64.7094497680664 -8.949633598327637 128 128 128
-3.339832305908203 -59.06257629394531 -27.046611785888672 128 128 128
10.559484481811523 -63.55335235595703 -12.10105037689209 128 128 128
-3.081836223602295 -59.044960021972656 -26.775585174560547 128 128 128
3.1173229217529297 -61.415809631347656 -20.593507766723633 128 128 128
-0.974922239780426 -59.31193923950195 -24.830730438232422 128 128 128
15.062331199645996 -56.297367095947266 -6.74886417388916 128 128 128
-3.3934385776519775 -59.07011413574219 -27.111589431762695 128 128 128
5.790154933929443 -55.90868377685547 -9.819376945495605 128 128 128
17.554811477661133 -57.602783203125 -7.254385948181152 128 128 128
-5.383818626403809 -59.212158203125 -28.89629554748535 128 128 128
13.613576889038086 -64.6972885131836 -9.016270637512207 128 128 128
14.306947708129883 -56.24632263183594 -7.0414719581604 128 128 128
60.978702545166016 46.65092086791992 -13.348912239074707 128 128 128
62.66878128051758 45.503421783447266 -7.945562362670898 128 128 128
61.256771087646484 47.91564178466797 -14.385133743286133 128 128 128
61.71150588989258 39.14975357055664 -12.556682586669922 128 128 128
56.39019012451172 48.36641311645508 -17.57963752746582 128 128 128
61.1573600769043 38.13672637939453 -12.054869651794434 128 128 128
57.65677261352539 38.8420524597168 -14.310357093811035 128 128 128
56.88470458984375 44.44599914550781 -13.58602523803711 128 128 128
63.53998565673828 40.734886169433594 -11.324234008789062 128 128 128
61.088565826416016 47.270782470703125 -13.88621711730957 128 128 128
56.4061164855957 39.40489196777344 -15.19295883178711 128 128 128
60.171730041503906 48.269073486328125 -15.460349082946777 128 128 128
47.69512939453125 48.37268829345703 -24.844247817993164 128 128 128
61.88271713256836 46.03569412231445 -3.6221938133239746 128 128 128
58.7293815612793 38.34308624267578 -13.594093322753906 128 128 128
61.46900177001953 45.98796844482422 -12.337409019470215 128 128 128
53.26106262207031 48.03370666503906 -19.348539352416992 128 128 128
60.791114807128906 38.53112030029297 -12.689111709594727 128 128 128
62.41761016845703 45.3860969543457 -9.693547248840332 128 128 128
62.02235412597656 44.6494255065918 -11.194856643676758 128 128 128
16.607994079589844 49.54094696044922 -49.6512336730957 128 128 128
2.0418505668640137 39.30451583862305 -57.322845458984375 128 128 128
-8.298970222473145 31.362546920776367 -65.92559051513672 128 128 128
13.444371223449707 47.646812438964844 -51.16488265991211 128 128 128
4.493280410766602 41.71916198730469 -56.21637725830078 128 128 128
-4.961555004119873 32.555458068847656 -65.05059814453125 128 128 128
20.188199996948242 52.28205108642578 -48.48166275024414 128 128 128
-4.170244216918945 30.123842239379883 -66.0790786743164 128 128 128
-0.021741125732660294 37.76485061645508 -59.447959899902344 128 128 128
-1.0610302686691284 32.24945831298828 -56.032569885253906 128 128 128
-12.247225761413574 30.339441299438477 -66.34111785888672 128 128 128
-4.569030284881592 36.525325775146484 -59.455970764160156 128 128 128
-0.820070743560791 32.11458206176758 -56.10439682006836 128 128 128
19.50353240966797 49.5689811706543 -47.31063461303711 128 128 128
-12.198334693908691 30.212329864501953 -66.3989028930664 128 128 128
-1.9381208419799805 36.404483795166016 -60.868228912353516 128 128 128
-6.769389629364014 32.69023513793945 -64.95002746582031 128 128 128
-12.8457670211792 31.63425064086914 -65.30857849121094 128 128 128
9.334956169128418 44.40816116333008 -53.680328369140625 128 128 128
-5.712051868438721 34.45607376098633 -54.149112701416016 128 128 128
28.500120162963867 57.66474914550781 -42.807125091552734 128 128 128
25.51268768310547 55.85975646972656 -46.17524719238281 128 128 128
29.294641494750977 57.4648323059082 -41.962646484375 128 128 128
27.622472763061523 57.36775207519531 -43.97243881225586 128 128 128
22.150903701782227 48.70402145385742 -40.288246154785156 128 128 128
18.12639617919922 50.74824523925781 -49.28068161010742 128 128 128
24.119977951049805 48.8029899597168 -38.22885513305664 128 128 128
26.281282424926758 56.47694778442383 -45.549015045166016 128 128 128
23.895387649536133 55.95221710205078 -27.638933181762695 128 128 128
30.101564407348633 50.33847427368164 -43.86705780029297 128 128 128
26.8949031829834 56.89445495605469 -44.92963409423828 128 128 128
22.758033752441406 54.33549880981445 -47.556312561035156 128 128 128
23.442005157470703 54.831695556640625 -47.314937591552734 128 128 128
23.09758949279785 48.88407897949219 -42.34899139404297 128 128 128
23.150907516479492 48.808773040771484 -38.626914978027344 128 128 128
26.570043563842773 49.06235885620117 -41.201942443847656 128 128 128
27.569467544555664 57.287540435791016 -44.135101318359375 128 128 128
28.566425323486328 49.11334228515625 -39.99051284790039 128 128 128
23.619749069213867 54.94126510620117 -47.22626876831055 128 128 128
31.157169342041016 50.68205261230469 -43.679718017578125 128 128 128
-19.951387405395508 -40.34866714477539 38.96989440917969 128 128 128
-29.490379333496094 -46.70528793334961 35.559242248535156 128 128 128
-23.289520263671875 -39.97828674316406 36.215171813964844 128 128 128
-27.316600799560547 -47.91184616088867 37.373695373535156 128 128 128
-23.062158584594727 -40.073822021484375 36.76573181152344 128 128 128
-19.1234188079834 -40.35729217529297 39.227134704589844 128 128 128
-23.645353317260742 -49.453617095947266 38.572303771972656 128 128 128
-33.04140853881836 -45.22469711303711 32.0611572265625 128 128 128
-32.6495246887207 -45.35771179199219 32.435882568359375 128 128 128
-24.412979125976562 -39.05354309082031 30.623960494995117 128 128 128
-23.40412712097168 -39.821842193603516 35.39072799682617 128 128 128
-25.53058624267578 -39.32203674316406 32.168617248535156 128 128 128
-20.597007751464844 -49.82254409790039 38.97608947753906 128 128 128
-19.419767379760742 -49.72850036621094 39.05739974975586 128 128 128
-23.77165985107422 -39.3817024230957 32.83728790283203 128 128 128
-29.01361083984375 -46.96259689331055 36.03287124633789 128 128 128
-27.456174850463867 -47.838069915771484 37.27058792114258 128 128 128
-29.327381134033203 -46.79407501220703 35.72366714477539 128 128 128
-22.551822662353516 -49.68508529663086 38.72792434692383 128 128 128
-19.212772369384766 -49.683326721191406 39.09251403808594 128 128 128
-60.78181457519531 -26.186508178710938 2.0949971675872803 128 128 128
-42.27665710449219 -31.097631454467773 10.507793426513672 128 128 128
-52.29277420043945 -29.819059371948242 10.262052536010742 128 128 128
-48.51940155029297 -28.873498916625977 14.31490707397461 128 128 128
-60.80000686645508 -26.114282608032227 2.1867640018463135 128 128 128
-49.25206756591797 -27.520341873168945 13.386652946472168 128 128 128
-59.25440216064453 -23.965530395507812 4.563653945922852 128 128 128
-44.34565353393555 -29.7420654296875 11.931541442871094 128 128 128
-52.909542083740234 -28.474031448364258 9.953676223754883 128 128 128
-37.94208908081055 -39.50014114379883 6.5030412673950195 128 128 128
-51.794158935546875 -28.60987091064453 11.249570846557617 128 128 128
-49.386295318603516 -28.03340721130371 13.710755348205566 128 128 128
-50.56583786010742 -26.96381950378418 12.491585731506348 128 128 128
-55.196109771728516 -26.147926330566406 8.360454559326172 128 128 128
-52.969844818115234 -28.598127365112305 9.799844741821289 128 128 128
-53.297271728515625 -33.3812255859375 8.688377380371094 128 128 128
-45.16849136352539 -29.550216674804688 12.61012077331543 128 128 128
-54.59830856323242 -26.59599494934082 8.783649444580078 128 128 128
-58.037010192871094 -24.180566787719727 5.884185314178467 128 128 128
-50.76396942138672 -27.542388916015625 12.465459823608398 128 128 128
-10.61953067779541 70.72894287109375 10.519737243652344 128 128 128
-12.388916969299316 66.6706314086914 5.82403564453125 128 128 128
-7.670944690704346 63.31372833251953 5.026790142059326 128 128 128
-6.838773250579834 73.74633026123047 6.059457302093506 128 128 128
-14.519301414489746 69.15066528320312 -0.716508686542511 128 128 128
-9.6845064163208 68.75912475585938 11.879162788391113 128 128 128
-4.516345977783203 75.17863464355469 7.519371509552002 128 128 128
-8.77151107788086 71.10088348388672 0.3888758718967438 128 128 128
-6.256785869598389 62.87321090698242 5.077217102050781 128 128 128
-12.673368453979492 61.820743560791016 -0.8619686961174011 128 128 128
-9.468658447265625 67.97679901123047 11.345900535583496 128 128 128
-9.731795310974121 69.11138916015625 12.076337814331055 128 128 128
-2.5637364387512207 61.972469329833984 -27.15374755859375 128 128 128
-4.569439888000488 75.1463394165039 7.464193820953369 128 128 128
-10.624935150146484 71.13504791259766 2.848371982574463 128 128 128
-11.960991859436035 64.66959381103516 3.874465227127075 128 128 128
-10.255401611328125 64.39806365966797 5.042863368988037 128 128 128
-11.564550399780273 69.87357330322266 8.487217903137207 128 128 128
-5.109880447387695 74.75530242919922 6.922260761260986 128 128 128
-15.118725776672363 68.82770538330078 -2.58109450340271 128 128 128
44.93291473388672 -20.18881607055664 -61.87630844116211 255 0 0
44.483585357666016 -19.986928939819336 -61.257545471191406 255 0 0
44.03425598144531 -19.7850399017334 -60.6387825012207 255 0 0
43.58492660522461 -19.58315086364746 -60.02001953125 255 0 0
43.13559341430664 -19.381263732910156 -59.40125274658203 255 0 0
42.68626403808594 -19.17937469482422 -58.78248977661133 255 0 0
42.2369384765625 -18.977487564086914 -58.16373062133789 255 0 0
41.7876091003418 -18.77560043334961 -57.54496765136719 255 0 0
41.338279724121094 -18.573711395263672 -56.926204681396484 255 0 0
40.88895034790039 -18.371822357177734 -56.30744171142578 255 0 0
40.43962097167969 -18.16993522644043 -55.68867874145508 255 0 0
39.990291595458984 -17.968046188354492 -55.06991195678711 255 0 0
39.54096221923828 -17.766157150268555 -54.451148986816406 255 0 0
39.091636657714844 -17.564271926879883 -53.83238983154297 255 0 0
38.642303466796875 -17.362380981445312 -53.213623046875 255 0 0
38.19297409057617 -17.160491943359375 -52.59485626220703 255 0 0
37.743648529052734 -16.958606719970703 -51.97610092163086 255 0 0
37.29431915283203 -16.756717681884766 -51.357337951660156 255 0 0
36.84498977661133 -16.554828643798828 -50.73857116699219 255 0 0
36.395660400390625 -16.352941513061523 -50.119808197021484 255 0 0
35.94633102416992 -16.151052474975586 -49.50104522705078 255 0 0
35.49699783325195 -15.949164390563965 -48.88228225708008 255 0 0
35.047672271728516 -15.747276306152344 -48.263519287109375 255 0 0
34.59834289550781 -15.545388221740723 -47.64475631713867 255 0 0
34.14901351928711 -15.343501091003418 -47.025997161865234 255 0 0
33.699684143066406 -15.14161205291748 -46.407230377197266 255 0 0
33.2503547668457 -14.93972396850586 -45.78846740722656 255 0 0
32.801025390625 -14.737835884094238 -45.16970443725586 255 0 0
32.3516960144043 -14.5359468460083 -44.550941467285156 255 0 0
31.902368545532227 -14.334059715270996 -43.93217849731445 255 0 0
31.453039169311523 -14.132171630859375 -43.31341552734375 255 0 0
31.00370979309082 -13.930282592773438 -42.69465255737305 255 0 0
30.55438232421875 -13.728395462036133 -42.075889587402344 255 0 0
30.105051040649414 -13.526506423950195 -41.457122802734375 255 0 0
29.655719757080078 -13.324617385864258 -40.83835983276367 255 0 0
29.206392288208008 -13.122730255126953 -40.219600677490234 255 0 0
28.757062911987305 -12.920842170715332 -39.60083770751953 255 0 0
28.307735443115234 -12.718954086303711 -38.98207473754883 255 0 0
27.85840606689453 -12.51706600189209 -38.363311767578125 255 0 0
27.40907859802246 -12.315178871154785 -37.74454879760742 255 0 0
26.959747314453125 -12.113288879394531 -37.12578201293945 255 0 0
26.510417938232422 -11.91140079498291 -36.50701904296875 255 0 0
26.06109046936035 -11.709513664245605 -35.88825988769531 255 0 0
25.61176109313965 -11.507624626159668 -35.26949691772461 255 0 0
25.162433624267578 -11.305737495422363 -34.650733947753906 255 0 0
24.713102340698242 -11.103849411010742 -34.0319709777832 255 0 0
24.263771057128906 -10.901960372924805 -33.413204193115234 255 0 0
23.814443588256836 -10.700072288513184 -32.79444122314453 255 0 0
23.365114212036133 -10.498184204101562 -32.17567825317383 255 0 0
22.915786743164062 -10.296297073364258 -31.55691909790039 255 0 0
22.46645736694336 -10.09440803527832 -30.938154220581055 255 0 0
22.017127990722656 -9.8925199508667 -30.31939125061035 255 0 0
21.56779670715332 -9.690631866455078 -29.700626373291016 255 0 0
21.11846923828125 -9.488743782043457 -29.081865310668945 255 0 0
20.669139862060547 -9.286855697631836 -28.463102340698242 255 0 0
20.219810485839844 -9.084967613220215 -27.84433937072754 255 0 0
19.77048110961914 -8.883078575134277 -27.225574493408203 255 0 0
19.321151733398438 -8.681190490722656 -26.6068115234375 255 0 0
18.871824264526367 -8.479303359985352 -25.98805046081543 255 0 0
18.422494888305664 -8.277414321899414 -25.369285583496094 255 0 0
17.97316551208496 -8.075526237487793 -24.75052261352539 255 0 0
17.523836135864258 -7.873638153076172 -24.131759643554688 255 0 0
17.074506759643555 -7.671750545501709 -23.512998580932617 255 0 0
16.62517738342285 -7.46986198425293 -22.89423370361328 255 0 0
16.17584800720215 -7.26797342300415 -22.275470733642578 255 0 0
15.726519584655762 -7.0660858154296875 -21.656707763671875 255 0 0
15.277191162109375 -6.864197731018066 -21.037944793701172 255 0 0
14.827859878540039 -6.662308692932129 -20.419179916381836 255 0 0
14.378531455993652 -6.460421085357666 -19.800418853759766 255 0 0
13.929203033447266 -6.258533000946045 -19.181655883789062 255 0 0
13.479873657226562 -6.056644439697266 -18.562891006469727 255 0 0
13.030545234680176 -5.854756832122803 -17.944129943847656 255 0 0
12.581216812133789 -5.652868747711182 -17.325366973876953 255 0 0
12.131885528564453 -5.450980186462402 -16.706602096557617 255 0 0
11.682557106018066 -5.249092102050781 -16.087839126586914 255 0 0
11.23322868347168 -5.04720401763916 -15.469077110290527 255 0 0
10.78389835357666 -4.845315933227539 -14.850313186645508 255 0 0
10.334569931030273 -4.643427848815918 -14.231551170349121 255 0 0
9.88524055480957 -4.441539287567139 -13.612787246704102 255 0 0
